# .PCD v0.7 - Point Cloud Data file format
VERSION 0.7
FIELDS x y z intensity
SIZE 4 4 4 4
TYPE F F F F
COUNT 1 1 1 1
WIDTH 1472
HEIGHT 1
VIEWPOINT 0 0 0 1 0 0 0
POINTS 1472
DATA ascii
8.3219824 -15.172905 -1.2046472 22
12.466503 -15.469718 -0.69604474 32
5.351665 -9.7744408 -1.5572982 6
9.0797224 -11.267944 -1.5121936 7
3.7648866 -6.8936477 -1.6636199 4
5.818615 -7.2195168 -1.6288211 4
2.8995643 -5.3291922 -1.7285725 4
4.3283205 -5.3674502 -1.7091913 4
10.855797 -16.848314 4.6118236 24
11.671816 -12.466495 4.560266 29
10.023407 -15.550264 2.9180965 14
16.147343 -17.304472 4.5896015 24
30.71541 -47.657974 4.9574184 18
33.288445 -35.754177 5.9853187 16
26.275257 -40.78384 0.84622353 79
33.407551 -35.944885 2.569957 18
nan nan nan 0
29.822813 -32.099831 -0.76420337 35
6.7863913 -10.543558 -1.5330684 6
11.354144 -12.220918 -1.4534694 6
4.6007724 -7.1496668 -1.6427733 4
6.8629231 -7.3817635 -1.5926931 4
3.4833724 -5.4186864 -1.7154999 4
5.0071597 -5.3744168 -1.6851444 4
9.0049257 -16.445894 3.9746039 23
11.465667 -14.172326 4.5296845 19
35.367271 -64.510742 10.334645 1
14.233603 -17.617992 3.9834492 25
26.729689 -48.713161 3.8733022 41
33.502579 -41.523457 5.604032 16
nan nan nan 0
33.667618 -41.757801 1.8719215 1
8.3219824 -15.172905 -1.2046472 22
12.466503 -15.469718 -0.69604474 32
5.351665 -9.7744408 -1.5572982 6
9.0797224 -11.267944 -1.5121936 7
3.7648866 -6.8936477 -1.6636199 4
5.818615 -7.2195168 -1.6288211 4
2.8995643 -5.3291922 -1.7285725 4
4.3283205 -5.3674502 -1.7091913 4
10.855797 -16.848314 4.6118236 24
11.671816 -12.466495 4.560266 29
10.023407 -15.550264 2.9180965 14
16.147343 -17.304472 4.5896015 24
30.71541 -47.657974 4.9574184 18
33.288445 -35.754177 5.9853187 16
26.275257 -40.78384 0.84622353 79
33.407551 -35.944885 2.569957 18
nan nan nan 0
29.822813 -32.099831 -0.76420337 35
6.7863913 -10.543558 -1.5330684 6
11.354144 -12.220918 -1.4534694 6
4.6007724 -7.1496668 -1.6427733 4
6.8629231 -7.3817635 -1.5926931 4
3.4833724 -5.4186864 -1.7154999 4
5.0071597 -5.3744168 -1.6851444 4
8.9888992 -16.560471 3.9943392 13
11.074881 -13.792464 4.3950019 27
35.24052 -64.842239 10.367003 13
12.509912 -15.601462 3.5163646 8
26.602205 -48.905014 3.8807824 6
33.49004 -41.820625 5.6275511 16
26.159172 -48.070446 0 1
33.629868 -42.025269 1.878378 13
8.2544069 -15.181391 -1.2029076 22
12.390991 -15.491894 -0.69499248 31
5.3146238 -9.7918139 -1.5569512 5
9.0368099 -11.299207 -1.5119331 7
3.7407577 -6.9095511 -1.6641401 4
5.7921147 -7.2407947 -1.6288211 4
2.8811517 -5.3418999 -1.729261 4
4.3131685 -5.3889589 -1.7110045 4
10.654922 -16.670395 4.5523014 27
11.598088 -12.479125 4.5492806 27
9.919795 -15.514079 2.9044387 22
16.037104 -17.313135 4.5762568 28
30.545895 -47.778629 4.9582901 23
33.266659 -35.994385 6.0050941 18
26.073109 -40.797722 0.84452188 81
33.400864 -36.202858 2.5796392 16
nan nan nan 0
29.627001 -32.124405 -0.76219636 31
6.7597179 -10.587186 -1.5358067 6
11.297453 -12.249639 -1.4519472 6
4.5758567 -7.16855 -1.6432494 4
6.8441982 -7.4159365 -1.5946506 4
3.4621909 -5.4293814 -1.7148532 4
4.9874287 -5.3927321 -1.6851444 3
8.9888992 -16.560471 3.9943392 13
11.074881 -13.792464 4.3950019 27
35.24052 -64.842239 10.367003 13
14.210527 -17.721903 3.9951589 15
35.354031 -64.997078 5.1584888 9
33.49004 -41.820625 5.6275511 16
26.159172 -48.070446 0 1
33.629868 -42.025269 1.878378 13
8.2517567 -15.182832 -1.2029076 22
12.390991 -15.491894 -0.69499248 31
5.3146238 -9.7918139 -1.5569512 5
9.0368042 -11.29921 -1.5119331 7
3.7407577 -6.9095511 -1.6641401 4
5.7908511 -7.2418051 -1.6288211 4
2.8811517 -5.3418999 -1.729261 4
4.3122282 -5.3897114 -1.7110045 4
10.654922 -16.670395 4.5523014 27
11.59591 -12.481149 4.5492806 27
9.919795 -15.514079 2.9044387 22
16.034081 -17.315935 4.5762568 28
30.545895 -47.778629 4.9582901 23
33.260376 -36.000191 6.0050941 18
26.073109 -40.797722 0.84452188 81
33.394547 -36.208687 2.5796392 16
9.9816685 -15.622892 -0.97301745 1
29.621395 -32.129578 -0.76219636 31
6.7597179 -10.587186 -1.5358067 6
11.295316 -12.25161 -1.4519472 6
4.574605 -7.1693487 -1.6432494 4
6.8429041 -7.4171305 -1.5946506 4
3.4612434 -5.429985 -1.7148532 4
4.9874287 -5.3927321 -1.6851444 3
8.8777418 -16.492682 3.970449 18
11.028182 -13.832937 4.395606 18
9.4051485 -17.443874 2.7803302 4
12.381757 -15.552585 3.4955473 24
26.462109 -49.054646 3.8853052 4
33.514072 -42.151348 5.6562963 13
26.151482 -48.458488 0 6
33.650837 -42.353668 1.8878009 16
8.1916113 -15.198368 -1.2018638 23
12.279343 -15.462667 -0.6917482 32
5.2792387 -9.8081236 -1.556604 6
9.0004015 -11.334579 -1.512454 7
3.7177715 -6.9247212 -1.6646603 4
5.7716622 -7.2696862 -1.6305575 4
2.8602235 -5.3476839 -1.7278838 4
4.2918787 -5.4028325 -1.7104001 4
11.241148 -17.723812 4.8296957 1
11.550632 -12.519774 4.5486345 24
nan nan nan 0
15.986833 -17.386248 4.58007 26
30.364258 -47.861832 4.9558935 20
33.263691 -36.256855 6.0285206 18
26.025579 -41.038364 0.84761965 39
33.379253 -36.446541 2.5882745 16
nan nan nan 0
29.416216 -32.13139 -0.75979662 36
6.7187371 -10.604428 -1.534894 6
11.264256 -12.303818 -1.4534694 6
4.549552 -7.1852732 -1.6432494 4
6.8153019 -7.4391513 -1.594259 4
3.4435582 -5.4440751 -1.7154999 4
4.961978 -5.402936 -1.6828983 4
8.8777418 -16.492682 3.970449 18
11.028182 -13.832937 4.395606 18
35.032757 -64.999725 10.37257 1
12.381757 -15.552585 3.4955473 24
35.080761 -65.034477 5.1517043 16
33.514072 -42.151348 5.6562963 13
26.151482 -48.458488 0 6
33.650837 -42.353668 1.8878009 16
8.1942635 -15.196938 -1.2018638 23
12.279343 -15.462667 -0.6917482 32
5.2792387 -9.8081236 -1.556604 6
9.0004063 -11.334575 -1.512454 7
3.7177715 -6.9247212 -1.6646603 4
5.7729306 -7.2686791 -1.6305575 4
2.8602235 -5.3476839 -1.7278838 4
4.2928214 -5.4020829 -1.7104001 4
11.241148 -17.723812 4.8296957 1
11.552817 -12.517757 4.5486345 24
nan nan nan 0
15.989867 -17.383459 4.58007 26
30.364258 -47.861832 4.9558935 20
33.27002 -36.251045 6.0285206 18
26.025579 -41.038364 0.84761965 39
33.385612 -36.440716 2.5882745 16
9.9324207 -15.666075 -0.97354257 1
29.421824 -32.126251 -0.75979662 36
6.7187371 -10.604428 -1.534894 6
11.266403 -12.301853 -1.4534694 6
4.5508056 -7.1844792 -1.6432494 4
6.8166003 -7.4379611 -1.594259 4
3.4445083 -5.4434743 -1.7154999 4
4.961978 -5.402936 -1.6828983 4
8.8368187 -16.54792 3.9766815 22
10.968694 -13.852315 4.3901701 20
34.758656 -65.006378 10.355174 18
12.426334 -15.715219 3.5228696 10
26.300472 -49.144325 3.8854792 3
33.532829 -42.463219 5.6832123 13
26.135763 -48.81604 0 13
33.664978 -42.661152 1.8965257 16
8.1320667 -15.202035 -1.2001243 20
12.262044 -15.546455 -0.69367731 26
5.2455196 -9.8233929 -1.556257 5
8.9627695 -11.364359 -1.512454 7
3.694788 -6.9370117 -1.6646603 4
5.7457452 -7.2839179 -1.6296895 4
2.840224 -5.3528924 -1.7265065 4
4.2763877 -5.4181924 -1.7110045 4
11.188803 -17.771301 4.8325038 36
11.63858 -12.694816 4.5990386 19
9.3652544 -14.868702 2.7713721 13
13.38884 -14.654054 3.848021 15
30.071337 -47.749409 4.9338865 20
33.295086 -36.520691 6.0549893 16
26.130373 -41.507328 0.85551691 27
33.409111 -36.710003 2.5995269 9
nan nan nan 0
29.236063 -32.136745 -0.75774598 31
6.6835346 -10.626649 -1.534894 6
11.215488 -12.328095 -1.4521646 6
4.524344 -7.195375 -1.642297 4
6.7935615 -7.4623513 -1.5946506 4
3.4238706 -5.4507761 -1.7142067 4
4.9506059 -5.4265561 -1.6851444 4
8.8368187 -16.54792 3.9766815 22
10.968694 -13.852315 4.3901701 20
34.758656 -65.006378 10.355174 18
14.190372 -17.945671 4.0237827 10
34.859024 -65.139465 5.1508346 13
33.540237 -42.457367 5.6832123 13
26.135763 -48.81604 0 13
33.664978 -42.661152 1.8965257 16
8.1320667 -15.202035 -1.2001243 20
12.262044 -15.546455 -0.69367731 26
5.2472339 -9.8224783 -1.556257 5
8.9627695 -11.364359 -1.512454 7
3.6959987 -6.936367 -1.6646603 4
5.7457452 -7.2839179 -1.6296895 4
2.8411584 -5.3523965 -1.7265065 4
4.2763877 -5.4181924 -1.7110045 4
11.191904 -17.769346 4.8325038 36
11.63858 -12.694816 4.5990386 19
9.3678493 -14.867067 2.7713721 13
15.607598 -17.08135 4.4866571 1
30.079668 -47.74416 4.9338865 20
33.295086 -36.520691 6.0549893 16
26.137617 -41.502769 0.85551691 27
33.409111 -36.710003 2.5995269 9
9.6703587 -15.359153 -0.95253843 1
29.241665 -32.131649 -0.75774598 31
6.685389 -10.625484 -1.534894 6
11.21764 -12.326138 -1.4521646 6
4.524344 -7.195375 -1.642297 4
6.7948637 -7.4611654 -1.5946506 4
3.4248216 -5.4501786 -1.7142067 4
4.9515529 -5.4256916 -1.6851444 4
8.8144636 -16.645668 3.9927812 14
10.909777 -13.87717 4.3859425 22
9.2688007 -17.47468 2.7751112 3
12.448952 -15.857259 3.5449879 36
30.113585 -56.745991 4.4784946 9
33.531467 -42.752209 5.7069926 16
26.176189 -49.304447 0 16
33.699234 -43.01244 1.9069084 13
8.0684395 -15.210499 -1.1985587 19
12.216944 -15.600964 -0.69420338 24
5.2163897 -9.8472986 -1.5572982 6
8.9291782 -11.403405 -1.5134958 7
3.66834 -6.9427385 -1.6630996 4
5.7248397 -7.3097434 -1.6309918 4
2.8224578 -5.3622813 -1.7265065 4
4.2559509 -5.4311781 -1.7104001 4
11.1311 -17.810373 4.833065 20
11.577931 -12.717511 4.5925765 26
9.3119688 -14.893394 2.7702014 22
13.373897 -14.74068 3.8585062 36
29.891705 -47.815079 4.9304004 16
17.426414 -19.252436 3.1796148 4
26.159481 -41.860847 0.86101443 27
13.919887 -15.406801 1.0863636 6
nan nan nan 0
29.045519 -32.140804 -0.75556439 39
6.6522002 -10.65507 -1.5358067 6
11.171206 -12.361526 -1.4517298 6
4.4979014 -7.2090421 -1.6418209 4
6.7704344 -7.4866686 -1.5950421 4
3.4019446 -5.4559522 -1.7122668 4
4.9309464 -5.4411383 -1.6845829 4
8.8144636 -16.645668 3.9927812 14
10.909777 -13.87717 4.3859425 22
15.168773 -28.603691 4.545393 4
12.448952 -15.857259 3.5449879 36
34.75066 -65.485451 5.1685781 1
33.524006 -42.75806 5.7069926 16
26.176189 -49.304447 0 16
33.699234 -43.01244 1.9069084 13
8.0684395 -15.210499 -1.1985587 19
12.216944 -15.600964 -0.69420338 24
5.2146707 -9.8482084 -1.5572982 6
8.9291782 -11.403405 -1.5134958 7
3.6671283 -6.943378 -1.6630996 4
5.7248397 -7.3097434 -1.6309918 4
2.8215218 -5.3627739 -1.7265065 4
4.2559509 -5.4311781 -1.7104001 4
11.127991 -17.812315 4.833065 20
11.577931 -12.717511 4.5925765 26
9.30937 -14.89502 2.7702014 22
13.373897 -14.74068 3.8585062 36
29.883358 -47.820297 4.9304004 16
33.288982 -36.770973 6.0771995 1
26.152178 -41.865414 0.86101443 27
33.394608 -36.952343 2.6084239 9
9.5359869 -15.269553 -0.94479316 1
29.039911 -32.145874 -0.75556439 39
6.6503406 -10.656231 -1.5358067 6
11.169047 -12.363475 -1.4517298 6
4.4979014 -7.2090421 -1.6418209 4
6.7691283 -7.4878502 -1.5950421 4
3.4009924 -5.4565458 -1.7122668 4
4.929997 -5.4419985 -1.6845829 4
nan nan nan 0
10.897646 -13.966787 4.4016457 10
9.1943264 -17.488811 2.77198 6
12.40891 -15.926085 3.5501924 31
28.542585 -54.264606 4.2742705 3
33.528923 -43.088631 5.7346926 13
20.240307 -38.461613 0 9
33.664062 -43.293449 1.9138883 16
8.0103149 -15.235552 -1.1982107 19
12.152015 -15.635774 -0.69376493 28
5.1762404 -9.8628693 -1.556604 5
8.8873234 -11.436057 -1.5134958 7
3.6427879 -6.95894 -1.6636199 4
5.7025442 -7.3365078 -1.6322941 4
2.8018472 -5.3730793 -1.7265065 4
4.2375064 -5.4486551 -1.7110045 4
11.101121 -17.915106 4.8499107 1
11.508567 -12.734783 4.5835295 15
9.3444757 -15.073867 2.797127 20
12.817086 -14.231694 3.7126687 4
29.488783 -47.575985 4.8940129 13
33.275082 -37.027458 6.0994086 18
26.152582 -42.209595 0.86611927 27
13.876662 -15.472583 1.0874103 12
nan nan nan 0
28.848461 -32.170219 -0.75364459 31
6.6151557 -10.686864 -1.5367193 6
11.133636 -12.41545 -1.4530345 6
4.4791956 -7.2380023 -1.644678 4
6.743288 -7.5144472 -1.5954337 4
3.3784313 -5.4648652 -1.7109735 4
4.9132776 -5.4636521 -1.6857059 4
nan nan nan 0
13.649933 -17.493357 5.5153441 1
15.061527 -28.654709 4.5446973 20
12.40891 -15.926085 3.5501924 31
29.936741 -56.915585 4.483192 13
33.528923 -43.088631 5.7346926 13
26.158266 -49.709805 0 1
33.664062 -43.293449 1.9138883 16
8.0103149 -15.235552 -1.1982107 19
12.152015 -15.635774 -0.69376493 28
5.1762404 -9.8628693 -1.556604 5
8.8873234 -11.436057 -1.5134958 7
3.6427879 -6.95894 -1.6636199 4
5.7025442 -7.3365078 -1.6322941 4
2.8018472 -5.3730793 -1.7265065 4
4.2375064 -5.4486551 -1.7110045 4
15.104098 -24.376284 6.6018763 1
15.271206 -16.896057 6.0846629 1
9.3444757 -15.073867 2.797127 20
15.406113 -17.105083 4.4637809 23
29.488783 -47.575985 4.8940129 13
33.275082 -37.027458 6.0994086 18
26.157848 -42.218094 0.86629379 1
33.409 -37.24173 2.6201994 4
9.41292 -15.196155 -0.93809807 1
28.848461 -32.170219 -0.75364459 31
6.6151557 -10.686864 -1.5367193 6
11.133636 -12.41545 -1.4530345 6
4.4791956 -7.2380023 -1.644678 4
6.743288 -7.5144472 -1.5954337 4
3.3784313 -5.4648652 -1.7109735 4
4.9132776 -5.4636521 -1.6857059 4
nan nan nan 0
10.952841 -14.138979 4.443923 18
9.0863228 -17.43078 2.7577145 19
12.351735 -15.967354 3.5497587 24
nan nan nan 0
33.542484 -43.4179 5.7629156 13
20.110554 -38.540901 0 75
33.685265 -43.634167 1.9237473 16
7.9432564 -15.23688 -1.1961234 19
12.08057 -15.656339 -0.6928004 24
5.1486335 -9.8940573 -1.5586865 5
8.8458309 -11.46504 -1.5132353 7
3.6173489 -6.9694414 -1.6630996 4
5.6768999 -7.3563685 -1.6322941 4
2.7830749 -5.3828268 -1.7265065 4
4.2154956 -5.4595737 -1.7097957 4
nan nan nan 0
11.523743 -12.841366 4.607439 15
9.2930946 -15.108496 2.7975171 23
12.744421 -14.250741 3.7059958 14
29.173805 -47.436783 4.8691735 9
14.00337 -15.696298 2.5747852 4
26.167404 -42.564678 0.87152952 23
13.840837 -15.541433 1.0888495 9
9.510129 -15.473532 -0.95319486 12
14.002943 -15.728902 -0.36698344 10
6.5778112 -10.70989 -1.5367193 6
11.081948 -12.444941 -1.4519472 6
4.4539027 -7.2535939 -1.644678 4
6.7137299 -7.5342546 -1.5946506 4
3.3593347 -5.476625 -1.7109735 4
4.8925524 -5.4789538 -1.6851444 4
nan nan nan 0
12.096967 -15.615572 4.9089704 1
9.0863228 -17.43078 2.7577145 19
13.65198 -17.647856 3.9240336 1
29.711367 -56.968876 4.4791908 1
33.542484 -43.4179 5.7629156 13
26.213539 -50.239685 0 6
33.685265 -43.634167 1.9237473 16
7.9432564 -15.23688 -1.1961234 19
12.08057 -15.656339 -0.6928004 24
5.1486335 -9.8940573 -1.5586865 5
8.8458309 -11.46504 -1.5132353 7
3.6173489 -6.9694414 -1.6630996 4
5.6768999 -7.3563685 -1.6322941 4
2.7830749 -5.3828268 -1.7265065 4
4.2154956 -5.4595737 -1.7097957 4
nan nan nan 0
11.523743 -12.841366 4.607439 15
9.2930946 -15.108496 2.7975171 23
15.478863 -17.3069 4.5023851 10
29.173805 -47.436783 4.8691735 9
33.266247 -37.278526 6.1216183 1
26.167404 -42.564678 0.87152952 23
33.403362 -37.497929 2.6300125 3
9.510129 -15.473532 -0.95319486 12
14.002943 -15.728902 -0.36698344 10
6.5778112 -10.70989 -1.5367193 6
11.081948 -12.444941 -1.4519472 6
4.4539027 -7.2535939 -1.644678 4
6.7137299 -7.5342546 -1.5946506 4
3.3593347 -5.476625 -1.7109735 4
4.8925524 -5.4789538 -1.6851444 4
nan nan nan 0
10.928084 -14.20406 4.4529819 20
9.0205135 -17.445421 2.7552791 6
12.123195 -15.779812 3.4990168 6
28.249327 -54.606041 4.2859254 16
33.546646 -43.722198 5.7885251 13
20.175659 -38.980392 0 86
33.660484 -43.902267 1.9306401 13
7.8892498 -15.25649 -1.1956013 22
12.087865 -15.773651 -0.69622016 10
5.1146603 -9.9088755 -1.5583394 5
8.8047371 -11.490365 -1.5127144 7
3.5964539 -6.9857488 -1.6641401 4
5.6569676 -7.3810139 -1.6335964 4
2.7684948 -5.3984437 -1.7285725 4
4.2017975 -5.4792967 -1.7116089 4
14.520363 -23.794348 6.4171338 6
11.56147 -12.969625 4.6397491 20
9.2416553 -15.137123 2.797127 25
12.768827 -14.373637 3.7269661 9
30.194529 -49.463451 5.0670166 9
13.956181 -15.748218 2.5756979 17
26.170626 -42.888069 0.87637258 24
14.015905 -15.84337 1.1067746 15
9.4496641 -15.490065 -0.95227587 22
13.924206 -15.745296 -0.36628532 23
6.5435519 -10.733764 -1.5370237 7
11.055473 -12.498406 -1.4539044 6
4.4247169 -7.2599392 -1.6427733 4
6.6903458 -7.5583248 -1.5950421 4
3.3436663 -5.4918609 -1.7122668 4
4.8775921 -5.4987907 -1.6862675 4
nan nan nan 0
10.928084 -14.20406 4.4529819 20
14.909327 -28.840141 4.5579185 2
13.7314 -17.872641 3.9639335 19
29.204906 -56.453487 4.431005 1
33.554276 -43.716339 5.7885251 13
26.284626 -50.785946 0 1
33.660484 -43.902267 1.9306401 13
7.8892498 -15.25649 -1.1956013 22
12.087865 -15.773651 -0.69622016 10
5.1163898 -9.9079828 -1.5583394 5
8.8047371 -11.490365 -1.5127144 7
3.5976734 -6.9851208 -1.6641401 4
5.6569676 -7.3810139 -1.6335964 4
2.7694368 -5.3979607 -1.7285725 4
4.2017975 -5.4792967 -1.7116089 4
14.524515 -23.791813 6.4171338 6
11.56147 -12.969625 4.6397491 20
9.244298 -15.135509 2.797127 25
15.592569 -17.550741 4.5524273 10
35.333916 -57.860401 5.9283333 1
33.293892 -37.559456 6.1496081 1
26.17811 -42.883503 0.87637258 24
14.015905 -15.84337 1.1067746 15
9.4523687 -15.488415 -0.95227587 22
13.926949 -15.742869 -0.36628532 23
6.5454249 -10.732622 -1.5370237 7
11.057653 -12.496477 -1.4539044 6
4.4247169 -7.2599392 -1.6427733 4
6.6916647 -7.557157 -1.5950421 4
3.344625 -5.4912772 -1.7122668 4
4.878551 -5.4979391 -1.6862675 4
nan nan nan 0
10.864172 -14.228595 4.4481506 24
nan nan nan 0
12.06677 -15.826096 3.4994502 21
nan nan nan 0
33.544491 -44.036808 5.8146572 9
20.04064 -39.069649 0 20
33.581051 -44.13271 1.9353515 13
7.8207736 -15.260885 -1.1936878 20
12.025431 -15.811882 -0.69595706 3
5.0789146 -9.9244652 -1.5579923 6
8.7640696 -11.524539 -1.512975 7
3.5709369 -6.9960814 -1.6636199 4
5.637332 -7.4114952 -1.6357671 4
2.746371 -5.4016457 -1.7265065 4
4.175808 -5.4869399 -1.7091913 4
14.798039 -24.44091 6.5777307 2
11.547475 -13.049885 4.6533198 23
9.1734095 -15.143942 2.7924442 25
12.621891 -14.313601 3.6993237 23
nan nan nan 0
13.9164 -15.819756 2.5790446 4
26.170921 -43.227203 0.88143373 25
13.974218 -15.91339 1.1080829 21
9.3839035 -15.503732 -0.95109439 19
13.898851 -15.82761 -0.36707067 4
6.5021915 -10.750169 -1.5361109 7
10.992049 -12.514473 -1.4512948 6
4.3993478 -7.2782083 -1.6432494 4
6.6639214 -7.5816321 -1.5950421 4
3.3207314 -5.4972968 -1.7103268 4
4.8551455 -5.5121293 -1.6851444 4
34.590626 -67.644997 16.127968 3
10.864172 -14.228595 4.4481506 24
34.698692 -67.739731 10.691624 1
12.06677 -15.826096 3.4994502 21
28.878344 -56.327122 4.4127398 1
33.536804 -44.04266 5.8146572 9
26.187292 -51.05545 0 4
33.581051 -44.13271 1.9353515 13
7.8181105 -15.26225 -1.1936878 20
12.025431 -15.811882 -0.69595706 3
5.0771818 -9.9253521 -1.5579923 6
8.7640648 -11.524542 -1.512975 7
3.5697157 -6.9967046 -1.6636199 4
5.6360388 -7.4124789 -1.6357671 4
2.7454278 -5.4021249 -1.7265065 4
4.17485 -5.487669 -1.7091913 4
34.996468 -57.828396 15.572275 2
11.545198 -13.0519 4.6533198 23
9.1707678 -15.145542 2.7924442 25
12.619392 -14.315804 3.6993237 23
35.022495 -57.848644 5.9132991 1
33.293667 -37.850971 6.1763816 1
26.163378 -43.231773 0.88143373 25
13.971441 -15.91583 1.1080829 21
9.381197 -15.505368 -0.95109439 19
28.230581 -32.1637 -0.74640179 16
6.5003157 -10.751303 -1.5361109 7
10.98768 -12.518309 -1.4512948 6
4.3980765 -7.278976 -1.6432494 4
6.6612749 -7.5839581 -1.5950421 4
3.3188121 -5.498456 -1.7103268 4
4.8541832 -5.5129766 -1.6851444 4
13.289605 -26.197283 6.2311897 9
10.837453 -14.291602 4.4566059 30
14.736773 -29.00091 4.5669646 2
12.078143 -15.95042 3.5180991 26
nan nan nan 0
34.518387 -45.644878 6.0111709 27
20.131989 -39.570412 0 13
33.445065 -44.257778 1.9359623 13
7.7674556 -15.288093 -1.1936878 21
nan nan nan 0
5.0520759 -9.9575911 -1.5604218 5
8.7243004 -11.551557 -1.5127144 6
3.5486999 -7.0128684 -1.6646603 4
5.6158791 -7.4370217 -1.6370695 4
2.7264187 -5.4090528 -1.7258178 4
4.1566291 -5.5014834 -1.7091913 4
14.777859 -24.601011 6.6069298 2
11.645363 -13.253352 4.7114778 26
9.2960014 -15.467969 2.8462951 12
12.736801 -14.545863 3.7479365 35
nan nan nan 0
nan nan nan 0
26.165302 -43.560429 0.88636404 25
13.774162 -15.796516 1.0965691 3
9.4145441 -15.677661 -0.95975864 7
28.051481 -32.174248 -0.74448198 28
6.4697337 -10.781312 -1.5373278 6
10.972303 -12.584704 -1.4547741 6
4.3789625 -7.3019409 -1.645154 4
6.637713 -7.6078658 -1.5954337 5
3.3055222 -5.5177188 -1.7129134 4
4.832665 -5.5253778 -1.6840214 4
34.538662 -68.099579 16.208988 3
10.837453 -14.291602 4.4566059 30
34.664482 -68.229645 10.750773 1
12.078143 -15.95042 3.5180991 26
28.711744 -56.462593 4.4158707 1
34.526356 -45.638855 6.0111709 27
26.222992 -51.545341 0 6
33.478203 -44.301632 1.9378817 1
7.7701235 -15.286736 -1.1936878 21
nan nan nan 0
5.0538135 -9.9567099 -1.5604218 5
8.7243052 -11.551553 -1.5127144 6
3.5499239 -7.012249 -1.6646603 4
5.617177 -7.4360414 -1.6370695 4
2.7273626 -5.408577 -1.7258178 4
4.1575894 -5.5007577 -1.7091913 4
34.783249 -57.885849 15.558237 1
11.647676 -13.25132 4.7114778 26
9.2987013 -15.466346 2.8462951 12
12.739342 -14.54364 3.7479365 35
34.782845 -57.862331 5.9034944 34
33.303612 -38.102966 6.2004166 16
26.172905 -43.555866 0.88636404 25
33.450462 -38.338371 2.664685 1
9.4172792 -15.676018 -0.95975864 7
28.062704 -32.164455 -0.74448198 28
6.4716144 -10.780182 -1.5373278 6
10.976695 -12.580873 -1.4547741 6
4.3802366 -7.3011765 -1.645154 4
6.640368 -7.6055479 -1.5954337 5
3.3074481 -5.5165644 -1.7129134 4
4.8336291 -5.5245337 -1.6840214 4
13.17611 -26.199816 6.2208033 16
10.821063 -14.373919 4.4704967 30
14.530781 -28.844332 4.5342588 3
12.065303 -16.049553 3.5306761 26
nan nan nan 0
34.508686 -45.947952 6.035996 30
26.118324 -51.786121 0 18
33.264881 -44.340282 1.934479 38
7.7099853 -15.300402 -1.1926441 18
nan nan nan 0
5.0179152 -9.9720793 -1.5600748 5
8.6869135 -11.585915 -1.5132353 7
3.5221379 -7.0180387 -1.6630996 4
5.6000519 -7.4674196 -1.6396742 4
2.7095397 -5.4202142 -1.7265065 4
4.1427326 -5.5210571 -1.7110045 4
16.774363 -28.136036 7.5424337 2
11.660125 -13.359203 4.7353878 21
15.946764 -26.737141 4.9140935 1
12.722329 -14.626899 3.7579448 31
29.470564 -49.414532 5.0306292 9
13.287869 -15.314471 2.4816878 8
23.483921 -39.391464 0.79988742 4
13.65467 -15.76475 1.0912046 9
9.2909355 -15.588692 -0.95240712 3
27.873325 -32.173435 -0.7424314 26
6.4288673 -10.794178 -1.5361109 6
10.929449 -12.615349 -1.4543391 6
4.3534694 -7.3143134 -1.644678 4
6.6202526 -7.6361413 -1.5969998 5
3.2820013 -5.5176964 -1.7096802 4
4.8143148 -5.5413733 -1.6840214 4
34.546776 -68.709137 16.325323 1
10.821063 -14.373919 4.4704967 30
34.694466 -68.88311 10.834625 1
12.065303 -16.049553 3.5306761 26
28.449369 -56.433296 4.4057813 1
34.500664 -45.953972 6.035996 30
26.118324 -51.786121 0 18
33.264881 -44.340282 1.934479 38
7.7099853 -15.300402 -1.1926441 18
22.605968 -30.144577 -1.3211522 1
5.0161753 -9.9729538 -1.5600748 5
8.6869135 -11.585915 -1.5132353 7
3.5209129 -7.0186534 -1.6630996 4
5.6000519 -7.4674196 -1.6396742 4
2.7085936 -5.4206877 -1.7265065 4
4.1427326 -5.5210571 -1.7110045 4
34.48481 -57.868546 15.519491 2
11.660125 -13.359203 4.7353878 21
15.942098 -26.739923 4.9140935 1
12.722329 -14.626899 3.7579448 31
34.551411 -57.957344 5.9002261 4
33.250107 -38.310802 6.2153244 1
26.139767 -43.864086 0.89068353 1
13.65467 -15.76475 1.0912046 9
9.2882147 -15.590313 -0.95240712 3
27.867716 -32.178299 -0.7424314 26
6.4269834 -10.7953 -1.5361109 6
10.927248 -12.617255 -1.4543391 6
4.3534694 -7.3143134 -1.644678 4
6.6189198 -7.6372967 -1.5969998 5
3.2810383 -5.5182691 -1.7096802 4
4.8133483 -5.542213 -1.6840214 4
nan nan nan 0
10.791542 -14.444575 4.4801602 23
14.418331 -28.884104 4.5321717 2
12.172784 -16.316647 3.5796833 4
0.18192522 -0.35496557 0.025397561 7
34.490955 -46.293446 6.0639572 26
18.661587 -37.338444 0 18
33.252842 -44.66431 1.9432911 20
7.6505141 -15.321862 -1.1921222 21
11.71151 -15.738523 -0.68727624 7
4.9806919 -9.9934874 -1.5604218 6
8.6414213 -11.613686 -1.5127144 7
3.4929903 -7.0271306 -1.6620592 4
5.5755854 -7.4918442 -1.6405425 4
2.6897724 -5.4327326 -1.7271951 4
4.1166716 -5.5284224 -1.7085869 4
8.9722929 -15.180172 4.0564728 5
11.625319 -13.418273 4.7412033 21
16.120443 -27.265825 4.9999423 9
12.578795 -14.569426 3.7312558 28
29.191895 -49.377258 5.015377 30
13.194394 -15.319833 2.4746902 21
23.315966 -39.453369 0.79932016 13
13.543074 -15.75223 1.086887 26
9.229743 -15.622103 -0.95227587 6
27.669735 -32.187347 -0.74029344 28
6.3924189 -10.827331 -1.5373278 7
10.869561 -12.644004 -1.452817 6
4.3291254 -7.3344469 -1.6456301 4
6.5924945 -7.6633759 -1.5973912 5
3.2595654 -5.5281782 -1.7090337 4
4.7961864 -5.5635061 -1.6851444 4
34.495346 -69.23806 16.420883 86
10.791542 -14.444575 4.4801602 23
35.484161 -71.098717 11.162725 1
13.687927 -18.347149 4.0259509 1
20.260262 -40.555569 3.1597352 1
34.490955 -46.293446 6.0639572 26
20.401451 -40.820457 0 1
33.252842 -44.66431 1.9432911 20
7.6505141 -15.321862 -1.1921222 21
11.71151 -15.738523 -0.68727624 7
4.9806919 -9.9934874 -1.5604218 6
8.6414213 -11.613686 -1.5127144 7
3.4929903 -7.0271306 -1.6620592 4
5.5755854 -7.4918442 -1.6405425 4
2.6897724 -5.4327326 -1.7271951 4
4.1166716 -5.5284224 -1.7085869 4
14.590287 -24.687254 6.6018763 2
11.625319 -13.418273 4.7412033 21
16.120443 -27.265825 4.9999423 9
12.578795 -14.569426 3.7312558 28
29.191895 -49.377258 5.015377 30
13.194394 -15.319833 2.4746902 21
26.247141 -44.413666 0.89988965 1
13.543074 -15.75223 1.086887 26
9.229743 -15.622103 -0.95227587 6
27.669735 -32.187347 -0.74029344 28
6.3924189 -10.827331 -1.5373278 7
10.869561 -12.644004 -1.452817 6
4.3291254 -7.3344469 -1.6456301 4
6.5924945 -7.6633759 -1.5973912 5
3.2595654 -5.5281782 -1.7090337 4
4.7961864 -5.5635061 -1.6851444 4
12.514049 -25.333027 5.9933267 8
nan nan nan 0
nan nan nan 0
12.123082 -16.368931 3.5818517 13
0.18179163 -0.35783345 0.025571518 7
34.5051 -46.651428 6.0950546 26
20.220001 -40.813015 0 39
33.251186 -44.989063 1.9523649 24
7.5925608 -15.339533 -1.1914264 19
11.660954 -15.785336 -0.68753928 8
4.9457779 -10.010813 -1.5604218 6
8.5963974 -11.637781 -1.5119331 7
3.4705987 -7.0436692 -1.6630996 4
5.5537901 -7.5172 -1.6418447 4
2.6707923 -5.4420886 -1.7271951 4
4.1045618 -5.5525107 -1.7116089 4
8.882288 -15.14835 4.0396271 3
11.071105 -12.869391 4.5331259 15
9.1245527 -15.55541 2.8443441 5
12.531057 -14.616971 3.7322087 24
29.024397 -49.48745 5.0162487 22
33.315495 -38.945587 6.2795191 9
23.295668 -39.735058 0.80337781 13
13.522054 -15.839274 1.0896345 26
9.1549578 -15.619761 -0.95017546 6
27.476061 -32.188686 -0.73811185 30
6.353332 -10.847438 -1.5370237 7
10.804333 -12.65725 -1.4499902 6
4.302258 -7.3473964 -1.645154 4
6.5769358 -7.6994777 -1.6001319 5
3.2426858 -5.5436916 -1.7103268 3
4.7783222 -5.5820637 -1.6857059 4
35.242001 -71.359978 16.895054 1
nan nan nan 0
35.531044 -71.819069 11.256319 1
13.352674 -18.028811 3.9457181 1
20.08427 -40.556755 3.1543427 1
34.502144 -46.64743 6.094532 1
20.220001 -40.813015 0 39
33.251186 -44.989063 1.9523649 24
7.5925608 -15.339533 -1.1914264 19
22.223394 -30.080515 -1.3113315 1
4.9457779 -10.010813 -1.5604218 6
8.5963974 -11.637781 -1.5119331 7
3.4705987 -7.0436692 -1.6630996 4
5.5537901 -7.5172 -1.6418447 4
2.6707923 -5.4420886 -1.7271951 4
4.1045618 -5.5525107 -1.7116089 4
17.478134 -29.81134 7.9574027 6
11.071105 -12.869391 4.5331259 15
16.111362 -27.468904 5.0268679 3
12.531057 -14.616971 3.7322087 24
29.024397 -49.48745 5.0162487 22
33.315495 -38.945587 6.2795191 9
26.191813 -44.675369 0.90333647 30
13.522054 -15.839274 1.0896345 26
9.1549578 -15.619761 -0.95017546 6
27.476061 -32.188686 -0.73811185 30
6.353332 -10.847438 -1.5370237 7
10.804333 -12.65725 -1.4499902 6
4.302258 -7.3473964 -1.645154 4
6.5769358 -7.6994777 -1.6001319 5
3.2426858 -5.5436916 -1.7103268 3
4.7783222 -5.5820637 -1.6857059 4
12.50418 -25.525928 6.0291619 27
11.280052 -15.314574 4.7265744 21
nan nan nan 0
11.976818 -16.284096 3.5545292 7
0.18609969 -0.36962768 0.026441298 7
34.531258 -47.012066 6.1271973 16
20.049278 -40.808037 0 48
33.240784 -45.28841 1.9605663 9
7.5394545 -15.360149 -1.1910785 19
11.561246 -15.759458 -0.68473333 8
4.9125533 -10.027159 -1.5604218 5
8.5636415 -11.674243 -1.512975 6
3.4472218 -7.0551391 -1.6630996 4
5.5346594 -7.5435152 -1.6435813 4
2.650631 -5.4465923 -1.7258178 4
4.0846901 -5.564136 -1.7110045 4
8.8050556 -15.131398 4.0272737 3
10.959314 -12.825267 4.5046926 19
9.1139097 -15.656013 2.8572216 3
12.407712 -14.570642 3.7098088 23
28.630877 -49.189526 4.9763751 9
33.309898 -39.20145 6.3029456 9
23.244223 -39.950371 0.80617023 81
13.527599 -15.952564 1.0943449 29
9.0893059 -15.626296 -0.94873142 6
27.286715 -32.1824 -0.73588669 28
6.3235593 -10.879173 -1.5385448 7
10.770356 -12.702504 -1.4510773 6
4.2803349 -7.3658671 -1.6461064 4
6.5529652 -7.7231274 -1.6005234 6
3.2230723 -5.5523252 -1.7096802 4
4.761364 -5.5997329 -1.6862675 4
12.50418 -25.525928 6.0291619 27
11.280052 -15.314574 4.7265744 21
35.579437 -72.521065 11.347826 1
13.441631 -18.275284 3.9899547 1
19.925488 -40.573887 3.1505156 1
34.539463 -47.006035 6.1271973 16
20.049278 -40.808037 0 48
33.240784 -45.28841 1.9605663 9
7.5394545 -15.360149 -1.1910785 19
22.138298 -30.174181 -1.3122083 1
4.9143038 -10.0263 -1.5604218 5
8.5636415 -11.674243 -1.512975 6
3.4484532 -7.0545373 -1.6630996 4
5.5346594 -7.5435152 -1.6435813 4
2.6515813 -5.4461293 -1.7258178 4
4.0846901 -5.564136 -1.7110045 4
14.478929 -24.874012 6.6260219 4
10.959314 -12.825267 4.5046926 19
9.116642 -15.654422 2.8572216 3
12.407712 -14.570642 3.7098088 23
28.72843 -49.337337 4.9918451 22
33.309898 -39.20145 6.3029456 9
26.224852 -45.055561 0.90935761 30
13.527599 -15.952564 1.0943449 29
9.0920334 -15.624709 -0.94873142 6
27.306877 -32.194794 -0.73627937 28
6.3254576 -10.878071 -1.5385448 7
10.772573 -12.700624 -1.4510773 6
4.2803349 -7.3658671 -1.6461064 4
6.5543132 -7.7219839 -1.6005234 6
3.2240415 -5.5517626 -1.7096802 4
4.7623415 -5.5989022 -1.6862675 4
12.423544 -25.587023 6.0333166 7
nan nan nan 0
13.983739 -28.750511 4.4883323 26
13.416961 -18.375776 4.0016642 16
19.869949 -40.820343 3.164258 79
34.518768 -47.323158 6.1528068 32
19.874971 -40.812592 0 52
nan nan nan 0
7.4814301 -15.377401 -1.1903827 18
11.473804 -15.755291 -0.68280429 9
4.8792748 -10.043395 -1.5604218 6
8.5199108 -11.700045 -1.512454 6
3.4227421 -7.0643311 -1.6625794 4
5.5111933 -7.5667682 -1.6444494 4
2.6346405 -5.4596825 -1.7271951 4
4.0609546 -5.5724802 -1.7091913 4
14.402975 -24.943388 6.6310754 1
10.970746 -12.929724 4.527956 24
15.713931 -27.203089 4.9589686 6
12.339341 -14.593256 3.7045662 19
nan nan nan 0
33.31369 -39.484367 6.3297186 13
23.165358 -40.120316 0.8080464 20
13.455747 -15.980593 1.0930364 18
9.0486679 -15.675811 -0.94991291 5
27.115419 -32.196243 -0.73414135 26
6.2874475 -10.900084 -1.5385448 7
10.71052 -12.717199 -1.4486853 7
4.2509212 -7.3743839 -1.644678 4
6.5384636 -7.7580266 -1.6032641 5
3.203438 -5.5608902 -1.7090337 3
4.7396231 -5.6117716 -1.6851444 4
14.719307 -30.31706 7.1499243 1
nan nan nan 0
35.365044 -72.72496 11.360351 13
13.416961 -18.375776 4.0016642 16
19.869949 -40.820343 3.164258 79
34.510509 -47.329185 6.1528068 32
19.874971 -40.812592 0 52
34.634811 -47.534481 2.0526137 1
7.4814301 -15.377401 -1.1903827 18
22.26232 -30.566322 -1.3258872 1
4.8775225 -10.044246 -1.5604218 6
8.5199108 -11.700045 -1.512454 6
3.4215093 -7.0649281 -1.6625794 4
5.5111933 -7.5667682 -1.6444494 4
2.6336875 -5.4601421 -1.7271951 4
4.0609546 -5.5724802 -1.7091913 4
17.176178 -29.758711 7.9119191 1
10.970746 -12.929724 4.527956 24
15.709183 -27.20583 4.9589686 6
12.339341 -14.593256 3.7045662 19
28.409185 -49.202892 4.9676595 1
33.31369 -39.484367 6.3297186 13
26.20447 -45.402512 0.91441882 1
13.455747 -15.980593 1.0930364 18
9.0459318 -15.677389 -0.94991291 5
27.109808 -32.20097 -0.73414135 26
6.2855449 -10.901181 -1.5385448 7
10.708299 -12.719069 -1.4486853 7
4.2509212 -7.3743839 -1.644678 4
6.5371094 -7.7591677 -1.6032641 5
3.2024672 -5.5614495 -1.7090337 3
4.7386432 -5.6125989 -1.6851444 4
12.327792 -25.61701 6.030201 3
nan nan nan 0
13.817736 -28.663107 4.4671082 40
13.462564 -18.573996 4.0346251 21
19.702421 -40.837795 3.1602571 79
34.451515 -47.596378 6.1718831 18
19.685667 -40.784897 0 34
34.473064 -47.661167 2.0528755 4
7.429873 -15.407916 -1.1907306 17
11.39385 -15.760828 -0.68131363 30
4.8435044 -10.063441 -1.5607687 6
8.4848452 -11.737772 -1.5134958 7
3.4010551 -7.0856485 -1.6646603 4
5.4804177 -7.5799751 -1.6431471 4
2.6125422 -5.4649644 -1.7258178 4
4.0386333 -5.5826912 -1.7079827 4
8.6701546 -15.141755 4.0137968 1
10.961347 -13.010406 4.5428185 29
15.607986 -27.249786 4.9570179 13
12.272541 -14.617448 3.6998003 16
nan nan nan 0
33.328655 -39.783001 6.3589258 13
23.187046 -40.499973 0.81398022 20
13.395077 -16.021719 1.0926439 4
8.9675941 -15.667701 -0.94741863 9
26.928293 -32.212948 -0.73226523 27
6.249918 -10.927364 -1.5391533 7
10.667033 -12.760193 -1.4491203 6
4.2300253 -7.3976998 -1.6465825 4
6.4973035 -7.7667937 -1.6001319 6
3.1878235 -5.5809832 -1.7116201 4
4.7190228 -5.6291056 -1.6851444 4
14.519043 -30.172125 7.1037021 3
nan nan nan 0
13.817736 -28.663107 4.4671082 40
13.462564 -18.573996 4.0346251 21
19.702421 -40.837795 3.1602571 79
34.451515 -47.596378 6.1718831 18
19.685667 -40.784897 0 34
34.473064 -47.661167 2.0528755 4
7.429873 -15.407916 -1.1907306 17
11.39385 -15.760828 -0.68131363 30
4.8435044 -10.063441 -1.5607687 6
8.4848452 -11.737772 -1.5134958 7
3.4010551 -7.0856485 -1.6646603 4
5.4804177 -7.5799751 -1.6431471 4
2.6125422 -5.4649644 -1.7258178 4
4.0386333 -5.5826912 -1.7079827 4
17.083088 -29.837511 7.9169726 6
10.961347 -13.010406 4.5428185 29
15.607986 -27.249786 4.9570179 13
12.272541 -14.617448 3.6998003 16
28.016953 -48.917072 4.928875 1
33.323875 -39.777298 6.3580132 13
26.19733 -45.758354 0.91974175 26
33.463535 -40.014812 2.7319367 1
8.9675941 -15.667701 -0.94741863 9
26.928293 -32.212948 -0.73226523 27
6.249918 -10.927364 -1.5391533 7
10.667033 -12.760193 -1.4491203 6
4.2300253 -7.3976998 -1.6465825 4
6.4973035 -7.7667937 -1.6001319 6
3.1878235 -5.5809832 -1.7116201 4
4.7190228 -5.6291056 -1.6851444 4
14.359965 -30.123587 7.0798116 3
nan nan nan 0
13.698721 -28.684513 4.462585 45
13.395835 -18.625214 4.0350585 9
19.519276 -40.839977 3.1548645 80
34.453793 -47.968693 6.2037644 6
17.383873 -36.354752 0 151
nan nan nan 0
7.3679786 -15.423792 -1.1898609 16
11.389898 -15.877591 -0.68455803 1
4.8044586 -10.076656 -1.5600748 5
8.4417667 -11.768791 -1.5134958 6
3.3750622 -7.0980663 -1.6646603 4
5.4569058 -7.6060114 -1.6444494 4
2.5966027 -5.4831939 -1.7285725 3
4.0181451 -5.5974565 -1.7079827 4
8.5592823 -15.075976 3.9879665 7
10.932185 -13.072722 4.5505729 28
15.393387 -27.104963 4.9203367 20
12.269174 -14.722649 3.7150514 7
nan nan nan 0
33.312729 -40.061329 6.3838735 16
23.205029 -40.878155 0.81987035 9
13.296396 -16.022686 1.0893729 1
8.8793077 -15.646178 -0.94413674 9
26.723845 -32.207558 -0.72990912 28
6.2110486 -10.952355 -1.5394574 7
10.637693 -12.820281 -1.4515123 6
4.1992526 -7.4067488 -1.645154 4
6.4703712 -7.7924542 -1.6005234 7
3.1649675 -5.5884261 -1.7103268 4
4.6999187 -5.6482348 -1.6857059 4
35.236389 -73.931259 17.385839 16
nan nan nan 0
13.698721 -28.684513 4.462585 45
13.395835 -18.625214 4.0350585 9
19.519276 -40.839977 3.1548645 80
34.453793 -47.968693 6.2037644 6
17.383873 -36.354752 0 151
35.931335 -50.062527 2.1506815 1
7.3652864 -15.425078 -1.1898609 16
21.779388 -30.357416 -1.3100162 1
4.8044586 -10.076656 -1.5600748 5
8.441762 -11.768795 -1.5134958 6
3.3750622 -7.0980663 -1.6646603 4
5.4555783 -7.6069636 -1.6444494 4
2.5966027 -5.4831939 -1.7285725 3
4.017168 -5.5981574 -1.7079827 4
16.970005 -29.893566 7.915288 4
10.929904 -13.074632 4.5505729 28
15.393387 -27.104963 4.9203367 20
12.266603 -14.72479 3.7150514 7
27.518961 -48.458519 4.8724418 1
33.305737 -40.067142 6.3838735 16
26.19232 -46.141014 0.92550105 4
33.448357 -40.31015 2.74332 1
8.8793077 -15.646178 -0.94413674 9
26.71822 -32.212219 -0.72990912 28
6.2110486 -10.952355 -1.5394574 7
10.635455 -12.822139 -1.4515123 6
4.1979604 -7.4074817 -1.645154 4
6.4690113 -7.7935839 -1.6005234 7
3.1639924 -5.5889783 -1.7103268 4
4.6999187 -5.6482348 -1.6857059 4
14.50954 -30.713078 7.2065339 16
11.051139 -15.456722 4.7217431 27
13.591101 -28.716494 4.4601498 3
13.362215 -18.715942 4.0445995 30
19.345644 -40.842495 3.1498196 77
34.472343 -48.349812 6.2374744 4
nan nan nan 0
nan nan nan 0
7.3092647 -15.446183 -1.189513 15
11.074955 -15.552979 -0.66886234 6
4.7692552 -10.093366 -1.5600748 5
8.400629 -11.798191 -1.5134958 6
3.3523469 -7.1142292 -1.6657008 4
5.4361334 -7.6359873 -1.6466202 4
2.5754077 -5.4878716 -1.7271951 4
3.9990103 -5.6141214 -1.7085869 4
8.4850922 -15.067553 3.977859 9
10.862597 -13.086693 4.5415263 27
15.362906 -27.272562 4.9410186 20
12.144721 -14.682438 3.6936047 4
nan nan nan 0
33.312584 -40.361126 6.4121675 16
23.114927 -41.052567 0.82174653 20
13.255044 -16.092505 1.0908121 6
8.8662691 -15.75105 -0.94860017 10
26.532511 -32.216541 -0.72790211 28
6.180078 -10.986948 -1.541283 8
10.584297 -12.851497 -1.4506425 6
4.175684 -7.4285083 -1.6465825 4
6.4323397 -7.8046894 -1.5981743 7
3.1468275 -5.6042008 -1.7116201 4
4.6786213 -5.6627297 -1.6851444 4
35.241276 -74.611053 17.516718 37
11.051139 -15.456722 4.7217431 27
nan nan nan 0
13.362215 -18.715942 4.0445995 30
19.345644 -40.842495 3.1498196 77
34.480785 -48.343796 6.2374744 4
nan nan nan 0
35.924541 -50.423683 2.1608021 1
7.3119607 -15.444907 -1.189513 15
11.074955 -15.552979 -0.66886234 6
4.7710166 -10.092533 -1.5600748 5
8.4006348 -11.798187 -1.5134958 6
3.3535886 -7.1136446 -1.6657008 4
5.4374661 -7.6350384 -1.6466202 4
2.5763657 -5.487422 -1.7271951 4
3.99999 -5.6134229 -1.7085869 4
16.886326 -29.977274 7.9225883 1
10.86488 -13.084798 4.5415263 27
15.367665 -27.26988 4.9410186 20
14.388355 -17.387384 4.3760877 18
27.419243 -48.657997 4.8833361 1
33.319626 -40.355309 6.4121675 16
26.224398 -46.55648 0.93208933 1
33.460598 -40.59808 2.7553573 1
8.8690176 -15.749503 -0.94860017 10
26.543751 -32.207283 -0.72790211 28
6.1819954 -10.985868 -1.541283 8
10.588783 -12.847801 -1.4506425 6
4.1769805 -7.4277797 -1.6465825 4
6.4350638 -7.8024435 -1.5981743 7
3.1487834 -5.6031017 -1.7116201 4
4.6796093 -5.6619129 -1.6851444 4
12.464319 -26.610653 6.2332673 4
11.004036 -15.499218 4.7235551 22
nan nan nan 0
13.171906 -18.579393 4.0055676 30
19.173006 -40.827412 3.1437314 59
11.061071 -15.619866 2.0079918 2
nan nan nan 0
nan nan nan 0
7.2522292 -15.451006 -1.1881212 15
11.027648 -15.595738 -0.66912544 8
4.7312231 -10.094845 -1.5579923 5
8.364337 -11.830041 -1.5140166 6
3.3289461 -7.12251 -1.6651804 4
5.4106951 -7.6510177 -1.6461859 4
2.5561292 -5.4915767 -1.7258178 4
3.981353 -5.6266565 -1.7085869 4
8.435338 -15.089882 3.9767361 13
10.807594 -13.10399 4.5357103 24
15.295227 -27.353022 4.9468722 16
14.307238 -17.406569 4.3689384 22
nan nan nan 0
33.338276 -40.65168 6.441679 13
26.158888 -46.802475 0.93527442 53
13.20917 -16.139866 1.0912046 9
8.607317 -15.403952 -0.92602068 22
26.371876 -32.215832 -0.7261132 26
6.149159 -11.012808 -1.5421957 7
10.549276 -12.886697 -1.4510773 6
4.1535215 -7.4437342 -1.6470587 4
6.4091549 -7.8237405 -1.5981743 7
3.1290097 -5.6114035 -1.7109735 4
4.6654487 -5.6830454 -1.686829 4
14.437684 -30.825253 7.2215953 6
11.004036 -15.499218 4.7235551 22
nan nan nan 0
13.171906 -18.579393 4.0055676 30
19.173006 -40.827412 3.1437314 59
34.479797 -48.683079 6.2664809 3
nan nan nan 0
35.950504 -50.815849 2.1724937 35
7.2522292 -15.451006 -1.1881212 15
21.612642 -30.562075 -1.3124714 1
4.7312231 -10.094845 -1.5579923 5
8.364337 -11.830041 -1.5140166 6
3.3289461 -7.12251 -1.6651804 4
5.4106951 -7.6510177 -1.6461859 4
2.5561292 -5.4915767 -1.7258178 4
3.981353 -5.6266565 -1.7085869 4
8.435338 -15.089882 3.9767361 13
10.807594 -13.10399 4.5357103 24
15.295227 -27.353022 4.9468722 16
14.307238 -17.406569 4.3689384 22
27.238291 -48.713875 4.8798499 1
33.338276 -40.65168 6.441679 13
26.158888 -46.802475 0.93527442 53
33.512413 -40.936749 2.7707961 1
8.607317 -15.403952 -0.92602068 22
26.371876 -32.215832 -0.7261132 26
6.149159 -11.012808 -1.5421957 7
10.549276 -12.886697 -1.4510773 6
4.1535215 -7.4437342 -1.6470587 4
6.4091549 -7.8237405 -1.5981743 7
3.1290097 -5.6114035 -1.7109735 4
4.6654487 -5.6830454 -1.686829 4
12.534405 -27.017773 6.3179216 18
nan nan nan 0
nan nan nan 0
11.064985 -15.729944 3.3814867 7
18.995893 -40.838612 3.1392083 48
nan nan nan 0
nan nan nan 0
11.353634 -16.176126 0.68891603 2
7.205008 -15.497841 -1.1896869 17
11.033562 -15.726037 -0.67298359 8
4.6952333 -10.114364 -1.5583394 6
8.3152084 -11.852478 -1.512975 6
3.3028183 -7.1346631 -1.6651804 4
5.3868613 -7.6768436 -1.6474884 4
2.5420122 -5.5140076 -1.7299497 4
3.9634931 -5.6451817 -1.7097957 4
8.4425497 -15.233634 4.0064969 9
10.728889 -13.106148 4.5227861 22
15.17452 -27.372185 4.9402385 9
14.227825 -17.439878 4.3641725 22
27.215322 -49.094376 4.907958 20
33.326916 -40.94294 6.4684525 13
25.995653 -46.913342 0.93557984 31
13.182991 -16.228857 1.0939523 8
8.55443 -15.441948 -0.92641455 15
26.187412 -32.230801 -0.72428071 28
6.1075525 -11.033101 -1.5418915 8
10.495688 -12.917545 -1.4502075 6
4.1285863 -7.463203 -1.6480111 4
6.3773193 -7.843348 -1.5973912 7
3.1095901 -5.6249475 -1.7116201 4
4.6461282 -5.7019949 -1.6873906 4
12.534405 -27.017773 6.3179216 18
nan nan nan 0
nan nan nan 0
13.005963 -18.488604 3.9756429 10
18.995893 -40.838612 3.1392083 48
10.835218 -15.426232 1.9776785 1
nan nan nan 0
35.817131 -51.02293 2.1757216 51
7.2023034 -15.499097 -1.1896869 17
nan nan nan 0
4.6934676 -10.115184 -1.5583394 6
8.3152037 -11.852481 -1.512975 6
3.3015733 -7.1352396 -1.6651804 4
5.3855214 -7.677784 -1.6474884 4
2.54105 -5.514451 -1.7299497 4
3.9625077 -5.6458731 -1.7097957 4
14.166761 -25.575165 6.7310271 1
10.726602 -13.108019 4.5227861 22
15.169743 -27.374832 4.9402385 9
14.22478 -17.44236 4.3641725 22
35.763401 -64.542084 6.4525752 4
33.319775 -40.948761 6.4684525 13
25.987463 -46.917881 0.93557984 31
13.180157 -16.231157 1.0939523 8
8.551734 -15.44344 -0.92641455 15
26.176163 -32.239941 -0.72428071 28
6.1056266 -11.034168 -1.5418915 8
10.491179 -12.921209 -1.4502075 6
4.1272836 -7.4639239 -1.6480111 4
6.3745813 -7.8455744 -1.5973912 7
3.1076264 -5.6260333 -1.7116201 4
4.645133 -5.702806 -1.6873906 4
12.996519 -28.272394 6.6009688 1
11.59223 -16.577501 5.0273461 24
nan nan nan 0
10.96067 -15.697822 3.3663073 13
18.816696 -40.825397 3.1331201 43
10.917834 -15.659742 2.0027654 5
19.758102 -42.848759 0 1
11.277102 -16.18696 0.68769455 14
7.1398163 -15.506018 -1.1882952 20
11.048575 -15.864911 -0.67728013 8
4.6632986 -10.142756 -1.5600748 5
8.2794638 -11.889594 -1.5140166 6
3.2735927 -7.1400509 -1.6636199 4
5.3558736 -7.6924949 -1.6466202 5
2.5197921 -5.5189137 -1.7285725 4
3.9413886 -5.65768 -1.7091913 4
8.4124632 -15.31145 4.0188508 1
10.793513 -13.284052 4.5706053 26
15.01582 -27.321575 4.9211173 30
14.814161 -18.294739 4.5648189 19
27.084372 -49.283279 4.9168911 20
33.323227 -41.246243 6.4970508 16
25.973961 -47.282162 0.94103366 25
33.438709 -41.463078 2.7897682 4
8.5157986 -15.506023 -0.92838371 8
26.046206 -32.309708 -0.72380078 24
6.0694604 -11.059765 -1.5425 8
10.447575 -12.95969 -1.450425 6
4.098845 -7.4739809 -1.6470587 4
6.3456044 -7.8658566 -1.5969998 7
3.0879688 -5.6368461 -1.7116201 4
4.6236644 -5.7170916 -1.686829 4
12.996519 -28.272394 6.6009688 1
11.59223 -16.577501 5.0273461 24
nan nan nan 0
10.96067 -15.697822 3.3663073 13
18.816696 -40.825397 3.1331201 43
10.917834 -15.659742 2.0027654 5
19.758102 -42.848759 0 1
35.518818 -50.975452 2.1683929 51
7.1425228 -15.504771 -1.1882952 20
11.048575 -15.864911 -0.67728013 8
4.6632986 -10.142756 -1.5600748 5
8.2794685 -11.889591 -1.5140166 6
3.2735927 -7.1400509 -1.6636199 4
5.3572154 -7.6915598 -1.6466202 5
2.5197921 -5.5189137 -1.7285725 4
3.9423757 -5.656992 -1.7091913 4
17.077591 -31.0863 8.1674137 4
10.795833 -13.282168 4.5706053 26
15.01582 -27.321575 4.9211173 30
14.817353 -18.292152 4.5648189 19
35.488708 -64.577034 6.4436417 3
33.330429 -41.240421 6.4970508 16
25.973961 -47.282162 0.94103366 25
33.445946 -41.457237 2.7897682 4
8.5157986 -15.506023 -0.92838371 8
26.051844 -32.305164 -0.72380078 24
6.0694604 -11.059765 -1.5425 8
10.449838 -12.957867 -1.450425 6
4.1001496 -7.4732652 -1.6470587 4
6.3469772 -7.864749 -1.5969998 7
3.0889528 -5.6363072 -1.7116201 4
4.6236644 -5.7170916 -1.686829 4
12.462014 -27.360565 6.3776474 66
11.431915 -16.4704 4.9826531 24
nan nan nan 0
10.933861 -15.776457 3.3749812 21
18.655426 -40.849991 3.1299887 39
nan nan nan 0
18.671492 -40.866325 0 6
11.183576 -16.172798 0.68542606 20
7.0821476 -15.515995 -1.1872516 20
10.984603 -15.891051 -0.67675406 9
4.6299157 -10.163477 -1.5607687 5
8.2350874 -11.914329 -1.5134958 6
3.2496595 -7.1536617 -1.6641401 4
5.3359361 -7.7183127 -1.6483564 5
2.50249 -5.5320559 -1.7299497 4
3.9281275 -5.6786976 -1.7116089 4
nan nan nan 0
10.843471 -13.436268 4.6106701 28
9.3416348 -17.137468 3.0788689 2
14.987256 -18.634399 4.6372609 20
26.926479 -49.403767 4.9195061 34
33.340034 -41.548107 6.5271707 16
25.992908 -47.710575 0.94775289 25
33.452442 -41.762726 2.8024595 6
8.5225115 -15.647475 -0.93507868 6
nan nan nan 0
6.0331888 -11.085241 -1.5431083 8
10.404541 -12.994264 -1.450425 6
4.072865 -7.4853754 -1.6465825 4
6.3148513 -7.8810768 -1.5958251 7
3.0658014 -5.6406889 -1.7096802 4
4.6036806 -5.7331972 -1.686829 4
12.462014 -27.360565 6.3776474 66
11.431915 -16.4704 4.9826531 24
nan nan nan 0
10.933861 -15.776457 3.3749812 21
18.655426 -40.849991 3.1299887 39
34.517002 -49.871071 6.3710093 13
18.671492 -40.866325 0 6
35.221279 -50.926521 2.1610639 1
7.0821476 -15.515995 -1.1872516 20
10.984603 -15.891051 -0.67675406 9
4.6299157 -10.163477 -1.5607687 5
8.2350874 -11.914329 -1.5134958 6
3.2496595 -7.1536617 -1.6641401 4
5.3359361 -7.7183127 -1.6483564 5
2.50249 -5.5320559 -1.7299497 4
3.9281275 -5.6786976 -1.7116089 4
nan nan nan 0
10.843471 -13.436268 4.6106701 28
14.995987 -27.51259 4.9460917 13
14.987256 -18.634399 4.6372609 20
35.286915 -64.744255 6.4479995 1
33.340034 -41.548107 6.5271707 16
25.992908 -47.710575 0.94775289 25
33.452442 -41.762726 2.8024595 6
8.5225115 -15.647475 -0.93507868 6
nan nan nan 0
6.0331888 -11.085241 -1.5431083 8
10.404541 -12.994264 -1.450425 6
4.072865 -7.4853754 -1.6465825 4
6.3148513 -7.8810768 -1.5958251 7
3.0658014 -5.6406889 -1.7096802 4
4.6036806 -5.7331972 -1.686829 4
11.803858 -26.1446 6.0847325 9
11.342813 -16.458284 4.9675541 22
nan nan nan 0
10.849377 -15.76598 3.3650062 22
13.087482 -28.908188 2.2109797 16
11.219382 -16.327911 2.0785484 3
18.492561 -40.832363 0 73
32.879639 -47.879562 2.02705 6
7.0183258 -15.512125 -1.185164 23
21.024035 -30.628103 -1.3025631 3
4.6043315 -10.19683 -1.5635453 5
8.1983471 -11.945672 -1.5140166 6
3.2239137 -7.1599379 -1.6630996 4
5.3075252 -7.7319064 -1.6474884 6
2.4802046 -5.5315499 -1.7271951 4
3.9024048 -5.6816964 -1.7085869 4
13.925822 -25.762548 6.7422581 3
10.862315 -13.551278 4.6378107 24
9.3000212 -17.19659 3.0839417 7
14.05668 -17.596964 4.3670321 19
26.828838 -49.615467 4.9317079 13
33.339733 -41.831131 6.5542479 18
26.002129 -48.106567 0.95390481 24
33.483208 -42.086369 2.8167212 9
8.4776955 -15.68883 -0.93586642 4
27.720392 -34.856594 -0.77676922 1
5.9975748 -11.107371 -1.5434127 7
10.369148 -13.03844 -1.4515123 6
4.0491858 -7.5010009 -1.6470587 4
6.2840667 -7.8961806 -1.5946506 8
3.0482252 -5.6529508 -1.7103268 4
4.5831227 -5.7465281 -1.6862675 4
11.803858 -26.1446 6.0847325 9
11.342813 -16.458284 4.9675541 22
nan nan nan 0
10.849377 -15.76598 3.3650062 22
18.504438 -40.877552 3.1273794 6
34.529198 -50.225117 6.4023685 9
18.492561 -40.832363 0 73
35.103127 -51.117176 2.1642048 1
7.0183258 -15.512125 -1.185164 23
21.024035 -30.628103 -1.3025631 3
4.606111 -10.196025 -1.5635453 5
8.1983471 -11.945672 -1.5140166 6
3.2251632 -7.1593747 -1.6630996 4
5.3075252 -7.7319064 -1.6474884 6
2.4811699 -5.5311174 -1.7271951 4
3.9024048 -5.6816964 -1.7085869 4
16.244198 -30.039551 7.8636274 24
10.862315 -13.551278 4.6378107 24
15.051639 -27.822374 4.9933085 2
14.05668 -17.596964 4.3670321 19
35.179321 -65.032234 6.4656487 26
33.339733 -41.831131 6.5542479 18
26.010525 -48.102028 0.95390481 24
33.483208 -42.086369 2.8167212 9
8.4923038 -15.709312 -0.93717915 4
27.726469 -34.851761 -0.77676922 1
5.9995131 -11.106325 -1.5434127 7
10.371424 -13.03663 -1.4515123 6
4.0491858 -7.5010009 -1.6470587 4
6.2854443 -7.8950839 -1.5946506 8
3.0492115 -5.6524186 -1.7103268 4
4.5841255 -5.745728 -1.6862675 4
11.692987 -26.154198 6.0769424 25
11.161895 -16.323534 4.9144058 25
nan nan nan 0
10.762359 -15.762941 3.3558989 27
12.944723 -28.874029 2.2047172 34
11.153914 -16.35465 2.0769806 9
14.946003 -33.324024 0 24
31.667061 -46.47805 1.9627476 16
