# .PCD v0.7 - Point Cloud Data file format
VERSION 0.7
FIELDS x y z intensity
SIZE 4 4 4 4
TYPE F F F F
COUNT 1 1 1 1
WIDTH 1421
HEIGHT 1
VIEWPOINT 0 0 0 1 0 0 0
POINTS 1421
DATA ascii
50.85622 -13.432051 10.20817 35
44.541939 -20.777912 4.2969961 27
55.512798 -14.734039 7.0376854 2
20.105274 -9.3819904 0.38665804 6
11.492102 -5.3643837 -0.66504407 5
15.664478 -4.1785445 -0.28238222 4
7.57443 -3.5382595 -1.0207273 7
9.3822632 -2.502887 -0.84481275 5
5.6477008 -2.6401587 -1.2027957 4
6.7069678 -1.7868098 -1.0950743 4
4.471715 -2.0928779 -1.3126516 6
5.2516856 -1.3923339 -1.2443453 7
36.416069 -20.447641 8.8622293 25
43.177448 -14.894675 11.362261 30
44.86319 -25.150686 7.2234311 23
50.923286 -17.606091 9.4848166 25
32.278976 -18.079741 2.5782003 6
65.918137 -22.841248 7.3287516 48
10.044315 -5.6295457 -0.80072069 5
13.502825 -4.688489 -0.5004192 5
6.9457612 -3.897784 -1.1116617 20
8.490881 -2.9490414 -0.93789333 6
5.1537027 -2.8991385 -1.250576 6
6.2494974 -2.1711466 -1.1604048 5
4.1153202 -2.3234453 -1.3442923 5
4.9005675 -1.7010854 -1.2837067 6
32.055073 -15.095819 8.1589918 39
36.100552 -16.993519 6.2997794 20
50.797165 -13.606316 10.205788 36
36.555637 -17.207769 3.5317686 27
19.977425 -9.4073801 0.38482553 5
11.475565 -5.4055305 -0.66517532 5
15.661861 -4.2364583 -0.28260034 4
7.5755 -3.5710294 -1.0225527 7
9.3758755 -2.5362713 -0.84503025 5
5.6340113 -2.6577613 -1.2018434 5
6.7006898 -1.8102107 -1.0950743 4
4.4621987 -2.1074421 -1.3120049 6
5.2538524 -1.4125488 -1.2460297 7
36.416069 -20.447641 8.8622293 25
43.177448 -14.894675 11.362261 30
44.86319 -25.150686 7.2234311 23
50.923286 -17.606091 9.4848166 25
32.339897 -18.113871 2.5830712 34
65.918137 -22.841248 7.3287516 48
36.202339 -12.559573 1.3369124 4
10.045298 -5.6277933 -0.80072069 5
13.502825 -4.688489 -0.5004192 5
6.9457612 -3.897784 -1.1116617 20
8.4908838 -2.9490356 -0.93789333 6
5.1537027 -2.8991385 -1.250576 6
6.249876 -2.1700556 -1.1604048 5
4.1153202 -2.3234453 -1.3442923 5
4.9008646 -1.7002299 -1.2837067 6
32.055073 -15.095819 8.1589918 39
36.100552 -16.993519 6.2997794 20
50.799541 -13.59745 10.205788 36
44.726009 -21.054197 4.321835 1
55.293495 -14.872299 7.0160847 1
19.977425 -9.4073801 0.38482553 5
11.475565 -5.4055305 -0.66517532 5
15.662601 -4.2337246 -0.28260034 4
7.5755 -3.5710294 -1.0225527 7
9.376318 -2.5346351 -0.84503025 5
5.6344752 -2.6567781 -1.2018434 5
6.7010055 -1.8090413 -1.0950743 4
4.4625664 -2.1066632 -1.3120049 6
5.2538524 -1.4125488 -1.2460297 7
36.563007 -20.689951 8.9146833 24
43.03619 -15.005831 11.338102 30
44.906708 -25.371178 7.2439594 30
50.936676 -17.800037 9.4982605 26
32.249249 -18.203852 2.5806358 23
66.161156 -23.171474 7.3642917 49
18.708107 -10.553942 0 4
10.041779 -5.6696615 -0.80193835 6
13.501348 -4.7382021 -0.50094527 5
6.9349523 -3.9220159 -1.1120088 23
8.4880962 -2.9796455 -0.93867481 5
5.1376815 -2.9125907 -1.2490155 5
6.2565861 -2.1956561 -1.1630095 5
4.105505 -2.3358891 -1.3436036 5
4.8929095 -1.7156706 -1.2831023 6
32.04224 -15.219804 8.1685371 26
36.061844 -17.121611 6.3029008 29
50.770748 -13.770328 10.209123 35
44.89217 -21.314564 4.3447137 34
19.837746 -9.4220924 0.38273126 4
11.473361 -5.4510565 -0.66609424 5
15.653299 -4.2869596 -0.28268763 4
7.5658565 -3.5971966 -1.022857 7
9.3798723 -2.5689976 -0.8461175 5
5.6411467 -2.6828306 -1.2051765 4
6.7068796 -1.8345019 -1.0970318 4
4.4599166 -2.1235282 -1.3132982 6
5.2444377 -1.4286869 -1.2449068 5
36.563007 -20.689951 8.9146833 24
43.03619 -15.005831 11.338102 30
44.906708 -25.371178 7.2439594 30
50.936676 -17.800037 9.4982605 26
32.249249 -18.203852 2.5806358 23
66.165207 -23.159927 7.3642917 49
18.708107 -10.553942 0 4
36.162846 -12.680381 1.3369995 4
10.041779 -5.6696615 -0.80193835 6
13.501348 -4.7382021 -0.50094527 5
6.9356365 -3.9208052 -1.1120088 23
8.4880962 -2.9796455 -0.93867481 5
5.1381898 -2.911694 -1.2490155 5
6.2565861 -2.1956561 -1.1630095 5
4.1059127 -2.3351724 -1.3436036 5
4.8929095 -1.7156706 -1.2831023 6
32.044895 -15.214211 8.1685371 26
36.064831 -17.115316 6.3029008 29
50.770748 -13.770328 10.209123 35
44.895889 -21.306728 4.3447137 34
55.071491 -15.008613 6.9941797 1
19.839388 -9.4186296 0.38273126 4
11.474312 -5.4490542 -0.66609424 5
15.654045 -4.2842331 -0.28268763 4
7.566484 -3.595876 -1.022857 7
9.3803215 -2.5673604 -0.8461175 5
5.6411467 -2.6828306 -1.2051765 4
6.7071996 -1.8333312 -1.0970318 4
4.4602871 -2.1227498 -1.3132982 6
5.2446871 -1.4277714 -1.2449068 5
36.618008 -20.890173 8.9458456 18
42.924061 -15.134993 11.3224 31
44.807114 -25.521648 7.2422194 1
50.953159 -18.005619 9.5130062 26
66.372253 -23.492783 7.3964343 34
18.758068 -10.668636 0 5
10.032762 -5.7108521 -0.80280811 6
13.475308 -4.781961 -0.50059456 4
6.9111567 -3.9388561 -1.1102735 23
8.4917021 -3.0142431 -0.94023746 6
5.1386065 -2.9356842 -1.2516165 5
6.2512045 -2.2183051 -1.1634437 5
4.0998206 -2.3506875 -1.3442923 5
4.8823175 -1.73112 -1.2818935 6
31.969625 -15.315451 8.1629219 29
36.000416 -17.23897 6.3021207 9
50.720009 -13.946816 10.208647 34
45.048103 -21.57196 4.3667202 34
19.729746 -9.4511032 0.38124779 4
11.466476 -5.4944692 -0.66675061 5
15.670308 -4.347528 -0.28325483 4
7.5650725 -3.6276329 -1.0243781 7
9.373702 -2.6007531 -0.84633493 5
5.6361723 -2.7046299 -1.2061288 4
6.6912403 -1.8541017 -1.0954659 4
4.4484963 -2.1362138 -1.3120049 5
5.2443686 -1.4473623 -1.2460297 5
36.618008 -20.890173 8.9458456 18
42.924061 -15.134993 11.3224 31
44.807114 -25.521648 7.2422194 1
50.953159 -18.005619 9.5130062 26
66.368156 -23.504364 7.3964343 34
18.758068 -10.668636 0 5
36.087757 -12.795685 1.3358655 4
10.032762 -5.7108521 -0.80280811 6
13.475308 -4.781961 -0.50059456 4
6.9104686 -3.9400623 -1.1102735 23
8.4917021 -3.0142431 -0.94023746 6
5.1380944 -2.9365809 -1.2516165 5
6.2512045 -2.2183051 -1.1634437 5
4.0994101 -2.3514032 -1.3442923 5
4.8823175 -1.73112 -1.2818935 6
31.966953 -15.321031 8.1629219 29
44.5667 -21.350969 7.8037033 1
50.720009 -13.946816 10.208647 34
45.044338 -21.579824 4.3667202 34
54.875256 -15.161118 6.975925 1
19.728098 -9.4545469 0.38124779 4
11.465518 -5.49647 -0.66675061 5
15.669551 -4.3502574 -0.28325483 4
7.5644398 -3.6289535 -1.0243781 7
9.3732481 -2.6023889 -0.84633493 5
5.6361723 -2.7046299 -1.2061288 4
6.6909165 -1.8552693 -1.0954659 4
4.4481239 -2.1369901 -1.3120049 5
5.2441158 -1.4482775 -1.2460297 5
36.519997 -21.012047 8.9406509 24
42.776901 -15.259615 11.298241 31
45.149029 -25.936071 7.31285 1
50.940151 -18.211313 9.5229816 9
48.382839 -27.771654 3.8887842 79
45.386692 -16.261898 5.0636196 48
18.727514 -10.742294 0 5
10.031225 -5.7587681 -0.80437374 6
13.483558 -4.8406005 -0.50155908 4
6.8981271 -3.9665992 -1.1106205 27
8.4805984 -3.0453465 -0.94023746 5
5.1315322 -2.9578388 -1.2526569 5
6.2546191 -2.2453575 -1.1656142 5
4.0990806 -2.3712335 -1.3470469 5
4.8805075 -1.7506393 -1.2831023 6
32.000492 -15.481593 8.1859446 28
50.689827 -14.138553 10.212935 28
45.265381 -21.890076 4.3959179 34
19.522306 -9.4440489 0.37793183 4
11.456531 -5.5438957 -0.66740704 5
15.663126 -4.4103675 -0.28342935 4
7.5555539 -3.6588178 -1.0249866 6
9.3684425 -2.6380742 -0.84676987 5
5.6328464 -2.7284808 -1.2075573 4
6.6864486 -1.8804473 -1.0958574 4
4.4424338 -2.1543336 -1.3126516 6
5.2364264 -1.4668336 -1.2454684 5
36.519997 -21.012047 8.9406509 24
42.776901 -15.259615 11.298241 31
45.149029 -25.936071 7.31285 1
50.940151 -18.211313 9.5229816 9
48.382839 -27.771654 3.8887842 79
45.386692 -16.261898 5.0636196 48
18.727514 -10.742294 0 5
36.005333 -12.915215 1.3345566 1
10.031225 -5.7587681 -0.80437374 6
13.483558 -4.8406005 -0.50155908 4
6.8981271 -3.9665992 -1.1106205 27
8.4805984 -3.0453465 -0.94023746 5
5.1315322 -2.9578388 -1.2526569 5
6.2546191 -2.2453575 -1.1656142 5
4.0990806 -2.3712335 -1.3470469 5
4.8805075 -1.7506393 -1.2831023 6
32.000492 -15.481593 8.1859446 28
44.737122 -21.634584 7.8474083 1
50.689827 -14.138553 10.212935 28
45.265381 -21.890076 4.3959179 34
62.104675 -17.403107 7.9035535 1
19.522306 -9.4440489 0.37793183 4
11.456531 -5.5438957 -0.66740704 5
15.663126 -4.4103675 -0.28342935 4
7.5555539 -3.6588178 -1.0249866 6
9.3684425 -2.6380742 -0.84676987 5
5.6328464 -2.7284808 -1.2075573 4
6.6864486 -1.8804473 -1.0958574 4
4.4424338 -2.1543336 -1.3126516 6
5.2364264 -1.4668336 -1.2454684 5
42.680016 -15.393205 11.286766 34
45.488815 -26.342922 7.3827844 3
45.038853 -16.279356 8.4296465 40
48.223011 -27.904144 3.8837397 55
45.236145 -16.38636 5.0531673 71
18.750494 -10.842652 0 5
10.021852 -5.7999983 -0.80524349 6
13.471276 -4.8893418 -0.50173444 4
6.8863797 -3.9918966 -1.1109675 23
8.4792652 -3.0783226 -0.94127929 6
5.1211762 -2.975733 -1.2526569 5
6.2467432 -2.2671766 -1.1656142 5
4.092854 -2.3867402 -1.3477356 5
4.8675246 -1.7651865 -1.2812891 6
31.939688 -15.589996 8.1842604 31
44.916542 -21.915148 7.8922844 32
50.687397 -14.328755 10.222467 28
36.73708 -17.923996 3.5731673 6
19.466761 -9.5011721 0.37749553 3
11.44384 -5.5871391 -0.66780084 4
15.678886 -4.4739232 -0.28399655 4
7.5538821 -3.6906176 -1.0265077 7
9.3663616 -2.672807 -0.84742218 5
5.6232882 -2.7481265 -1.2075573 4
6.6917191 -1.9071519 -1.0978149 4
4.4435625 -2.1740754 -1.3152381 6
5.2265859 -1.4837765 -1.2443453 5
42.680016 -15.393205 11.286766 34
45.488815 -26.342922 7.3827844 3
45.038853 -16.279356 8.4296465 40
50.167824 -29.029699 4.0404739 1
45.236145 -16.38636 5.0531673 71
18.750494 -10.842652 0 5
35.967075 -13.043372 1.3348184 1
10.021852 -5.7999983 -0.80524349 6
13.471276 -4.8893418 -0.50173444 4
6.8863797 -3.9918966 -1.1109675 23
8.4792652 -3.0783226 -0.94127929 6
5.1211762 -2.975733 -1.2526569 5
6.2467432 -2.2671766 -1.1656142 5
4.092854 -2.3867402 -1.3477356 5
4.8675246 -1.7651865 -1.2812891 6
31.939688 -15.589996 8.1842604 31
44.916542 -21.915148 7.8922844 32
50.687397 -14.328755 10.222467 28
45.432659 -22.166992 4.4196677 31
62.09845 -17.635374 7.9105506 1
19.466761 -9.5011721 0.37749553 3
11.44384 -5.5871391 -0.66780084 4
15.678886 -4.4739232 -0.28399655 4
7.5538821 -3.6906176 -1.0265077 7
9.3663616 -2.672807 -0.84742218 5
5.6232882 -2.7481265 -1.2075573 4
6.6917191 -1.9071519 -1.0978149 4
4.4435625 -2.1740754 -1.3152381 6
5.2265859 -1.4837765 -1.2443453 5
35.231865 -20.591221 8.6591625 20
42.555798 -15.508077 11.26744 35
44.885178 -16.392305 8.4109983 61
48.276711 -28.149343 3.8955688 54
45.032127 -16.481596 5.0364428 63
18.692837 -10.89218 0 5
10.017641 -5.842 -0.80646127 6
13.46672 -4.9382868 -0.50217289 4
6.8688302 -4.0122113 -1.1102735 23
8.4736805 -3.1081355 -0.94180018 6
5.11128 -2.9926994 -1.2526569 6
6.2461262 -2.2904201 -1.1669166 5
4.0787034 -2.3966408 -1.3456695 5
4.8684783 -1.7838191 -1.2831023 6
31.918415 -15.71089 8.1921215 34
45.098427 -22.189354 7.93716 38
50.693871 -14.512293 10.23343 29
36.668507 -18.041327 3.5722959 254
19.349926 -9.5237226 0.37583756 3
11.427488 -5.6261601 -0.66793209 5
15.685578 -4.5321298 -0.28438926 4
7.5482807 -3.7189388 -1.0274206 7
9.3670187 -2.7066131 -0.84829205 5
5.6251497 -2.7721863 -1.2099382 4
6.690104 -1.9306983 -1.098598 4
4.4276667 -2.1845222 -1.3126516 6
5.219295 -1.5004292 -1.2437837 5
35.231865 -20.591221 8.6591625 20
42.555798 -15.508077 11.26744 35
44.885178 -16.392305 8.4109983 61
50.321186 -29.341648 4.0606527 1
45.035004 -16.473736 5.0364428 63
18.692837 -10.89218 0 5
35.895477 -13.152258 1.3337715 1
10.017641 -5.842 -0.80646127 6
13.46672 -4.9382868 -0.50217289 4
6.8695302 -4.0110121 -1.1102735 23
8.4736805 -3.1081355 -0.94180018 6
5.1118021 -2.9918072 -1.2526569 6
6.2461262 -2.2904201 -1.1669166 5
4.0791216 -2.3959291 -1.3456695 5
4.8684783 -1.7838191 -1.2831023 6
31.921158 -15.705319 8.1921215 34
45.102299 -22.181482 7.93716 38
50.693871 -14.512293 10.23343 29
36.671654 -18.034925 3.5722959 254
62.316269 -17.920738 7.9458427 1
19.351589 -9.5203457 0.37583756 3
11.428471 -5.624166 -0.66793209 5
15.686367 -4.529398 -0.28438926 4
7.5489292 -3.7176213 -1.0274206 7
9.3674908 -2.7049785 -0.84829205 5
5.6251497 -2.7721863 -1.2099382 4
6.6904407 -1.9295305 -1.098598 4
4.4280481 -2.1837492 -1.3126516 6
5.2195568 -1.4995182 -1.2437837 5
35.157665 -20.712835 8.6586437 36
42.426281 -15.628859 11.247509 31
44.716808 -16.507959 8.3901806 44
44.867615 -16.590313 5.0241604 50
10.005785 -5.8819904 -0.80715704 6
13.461111 -4.989604 -0.50261134 5
6.8533545 -4.03371 -1.1099263 25
8.4697733 -3.1402869 -0.94258153 5
5.1139584 -3.0170963 -1.2557781 5
6.2404022 -2.3130641 -1.1673508 5
4.0748672 -2.4126058 -1.3470469 5
4.8667727 -1.8024856 -1.2843111 6
32.48148 -16.122108 8.3504715 27
36.395489 -18.057135 6.4148955 9
50.694759 -14.704195 10.243915 28
36.619629 -18.168356 3.5733855 255
19.307043 -9.5822802 0.37561938 4
11.41995 -5.6695771 -0.66858852 5
15.687257 -4.5890346 -0.28469467 4
7.5536828 -3.752785 -1.0298544 6
9.3532104 -2.736264 -0.84785712 5
5.6176362 -2.7928982 -1.2104144 4
6.6931467 -1.9556363 -1.1001641 4
4.4268847 -2.2024221 -1.3145915 6
5.2213097 -1.5197654 -1.2454684 5
35.157665 -20.712835 8.6586437 36
42.426281 -15.628859 11.247509 31
51.925266 -30.544872 8.4617233 13
44.716808 -16.507959 8.3901806 44
44.864723 -16.598143 5.0241604 50
35.847008 -13.27661 1.3336842 1
10.005785 -5.8819904 -0.80715704 6
13.461111 -4.989604 -0.50261134 5
6.8526502 -4.0349064 -1.1099263 25
8.4697733 -3.1402869 -0.94258153 5
5.1134319 -3.0179887 -1.2557781 5
6.2404022 -2.3130641 -1.1673508 5
4.0744462 -2.413317 -1.3470469 5
4.8667727 -1.8024856 -1.2843111 6
32.478668 -16.127775 8.3504715 27
45.062717 -22.3675 7.9445744 1
50.694759 -14.704195 10.243915 28
36.616463 -18.174747 3.5733855 255
62.498722 -18.209631 7.9771791 1
19.305372 -9.5856495 0.37561938 4
11.41896 -5.6715703 -0.66858852 5
15.686459 -4.5917668 -0.28469467 4
7.5530276 -3.7541032 -1.0298544 6
9.3527327 -2.7378964 -0.84785712 5
5.6176362 -2.7928982 -1.2104144 4
6.6928048 -1.9568046 -1.1001641 4
4.4264994 -2.2031949 -1.3145915 6
5.2210441 -1.5206766 -1.2454684 5
35.131969 -20.871538 8.6711073 24
42.284603 -15.752923 11.225163 34
44.54298 -16.629555 8.3689299 39
44.691811 -16.720655 5.0116172 39
9.9991732 -5.9275317 -0.8083747 6
13.459111 -5.0450444 -0.50322509 5
6.8441997 -4.0637903 -1.1109675 24
8.4582071 -3.171309 -0.94258153 6
5.0981355 -3.0342062 -1.2547376 5
6.2411046 -2.3393743 -1.1690873 5
4.0676355 -2.4294684 -1.3477356 5
4.8510447 -1.8169113 -1.2818935 6
32.704639 -16.389702 8.4240322 26
36.328098 -18.197857 6.4152856 9
50.689972 -14.904435 10.253923 28
36.562958 -18.315525 3.5746927 128
18.957256 -9.4995422 0.36951104 5
11.402559 -5.7156229 -0.66885108 5
15.700677 -4.6584635 -0.28526187 4
7.548089 -3.7862134 -1.0310714 6
9.3521872 -2.7749867 -0.84872693 5
5.6139417 -2.8167725 -1.2118428 4
6.6808529 -1.9799217 -1.0993811 4
4.418395 -2.2194037 -1.3145915 6
5.2130985 -1.5391146 -1.2449068 5
35.131969 -20.871538 8.6711073 24
42.284603 -15.752923 11.225163 34
52.010971 -30.852463 8.4940815 2
44.54298 -16.629555 8.3689299 39
44.691811 -16.720655 5.0116172 39
35.777039 -13.40002 1.3328989 1
9.9981384 -5.9292769 -0.8083747 6
13.459111 -5.0450444 -0.50322509 5
6.8441997 -4.0637903 -1.1109675 24
8.4582043 -3.1713145 -0.94258153 6
5.0981355 -3.0342062 -1.2547376 5
6.2406964 -2.3404636 -1.1690873 5
4.0676355 -2.4294684 -1.3477356 5
4.8507276 -1.817758 -1.2818935 6
32.704639 -16.389702 8.4240322 26
50.68737 -14.913283 10.253923 28
36.562958 -18.315525 3.5746927 128
62.854309 -18.575329 8.0316381 1
18.957256 -9.4995422 0.36951104 5
11.402559 -5.7156229 -0.66885108 5
15.699864 -4.6612034 -0.28526187 4
7.548089 -3.7862134 -1.0310714 6
9.3517027 -2.776619 -0.84872693 5
5.6134501 -2.8177524 -1.2118428 4
6.6805067 -1.9810876 -1.0993811 4
4.4180074 -2.220175 -1.3145915 6
5.2130985 -1.5391146 -1.2449068 5
35.207855 -21.083261 8.7079821 18
42.163509 -15.875638 11.207647 31
43.461411 -25.985664 7.1117449 39
44.387909 -16.748436 8.3507156 37
44.516888 -16.832594 4.9985514 40
18.698154 -11.163647 0 5
9.9966421 -5.9756641 -0.80994034 5
13.443756 -5.0928798 -0.50331277 4
6.8320966 -4.0889292 -1.1113147 24
8.4517336 -3.2025807 -0.94310248 5
5.0958972 -3.0570214 -1.2568185 5
6.2370934 -2.3639772 -1.1699555 5
4.0653043 -2.4473765 -1.3498017 5
4.8511605 -1.8372539 -1.2837067 6
32.645054 -16.502663 8.4234705 26
40.566402 -20.498619 7.1770034 1
50.700859 -15.109742 10.267267 28
18.970825 -9.5893402 0.37042731 8
11.393677 -5.7610245 -0.66950744 5
15.681103 -4.7152586 -0.28521824 4
7.5525365 -3.8215036 -1.0335053 6
9.3491087 -2.811394 -0.8493793 5
5.6057692 -2.838439 -1.212319 4
6.6782813 -2.0058124 -1.1001641 4
4.4102306 -2.2355831 -1.3145915 6
5.2006907 -1.5552144 -1.2432221 5
35.207855 -21.083261 8.7079821 18
42.163509 -15.875638 11.207647 31
47.313545 -28.289293 7.742547 1
44.387909 -16.748436 8.3507156 37
44.516888 -16.832594 4.9985514 40
18.698154 -11.163647 0 5
35.720703 -13.521287 1.3325499 1
9.9976854 -5.9739194 -0.80994034 5
13.443756 -5.0928798 -0.50331277 4
6.8320966 -4.0889292 -1.1113147 24
8.4517365 -3.2025752 -0.94310248 5
5.0958972 -3.0570214 -1.2568185 5
6.2375059 -2.3628888 -1.1699555 5
4.0653043 -2.4473765 -1.3498017 5
4.8514805 -1.8364073 -1.2837067 6
32.645054 -16.502663 8.4234705 26
40.566402 -20.498619 7.1770034 1
50.703495 -15.100894 10.267267 28
62.811398 -18.789349 8.0340729 1
18.970825 -9.5893402 0.37042731 8
11.393677 -5.7610245 -0.66950744 5
15.681925 -4.712522 -0.28521824 4
7.5525365 -3.8215036 -1.0335053 6
9.3495998 -2.809762 -0.8493793 5
5.6062641 -2.8374605 -1.212319 4
6.6786313 -2.0046465 -1.1001641 4
4.4106207 -2.2348132 -1.3145915 6
5.2006907 -1.5552144 -1.2432221 5
35.424583 -21.373001 8.7791328 18
42.033539 -15.986054 11.187113 1
43.018757 -25.914999 7.0532923 13
44.200985 -16.845568 8.3259945 38
44.344692 -16.935778 4.9854851 40
18.721006 -11.261684 0 4
9.9927731 -6.0160494 -0.811158 5
13.450129 -5.1463575 -0.50418967 4
6.8290977 -4.1179605 -1.11305 24
8.4573259 -3.2368021 -0.94492561 6
5.0878234 -3.0751693 -1.2573388 5
6.2365351 -2.3861973 -1.1712579 4
4.0510049 -2.4570997 -1.3477356 5
4.8453641 -1.8524853 -1.2837067 6
32.284122 -16.45483 8.3442945 25
40.462997 -20.615091 7.1707597 6
50.721283 -15.289484 10.281089 25
46.460846 -23.671156 4.5588989 1
18.916649 -9.6408453 0.36999097 8
11.38563 -5.8044457 -0.67016381 5
15.697305 -4.7739463 -0.28578547 4
7.5442429 -3.8487842 -1.0341138 6
9.3449974 -2.8421984 -0.84981424 6
5.6033821 -2.8593845 -1.2137475 4
6.6695843 -2.0260668 -1.0997726 4
4.407486 -2.251626 -1.3158848 6
5.204834 -1.5752667 -1.2454684 5
35.424583 -21.373001 8.7791328 18
42.033539 -15.986054 11.187113 1
47.501503 -28.615965 7.7888222 13
44.200985 -16.845568 8.3259945 38
44.344692 -16.935778 4.9854851 40
18.721006 -11.261684 0 4
35.647667 -13.628962 1.331503 1
9.9927731 -6.0160494 -0.811158 5
13.450129 -5.1463575 -0.50418967 4
6.8290977 -4.1179605 -1.11305 24
8.4573259 -3.2368021 -0.94492561 6
5.0878234 -3.0751693 -1.2573388 5
6.2365351 -2.3861973 -1.1712579 4
4.0510049 -2.4570997 -1.3477356 5
4.8453641 -1.8524853 -1.2837067 6
32.284122 -16.45483 8.3442945 25
40.462997 -20.615091 7.1707597 6
50.721283 -15.289484 10.281089 25
46.460846 -23.671156 4.5588989 1
63.028988 -19.082361 8.069973 1
18.916649 -9.6408453 0.36999097 8
11.38563 -5.8044457 -0.67016381 5
15.697305 -4.7739463 -0.28578547 4
7.5442429 -3.8487842 -1.0341138 6
9.3449974 -2.8421984 -0.84981424 6
5.6033821 -2.8593845 -1.2137475 4
6.6695843 -2.0260668 -1.0997726 4
4.407486 -2.251626 -1.3158848 6
5.204834 -1.5752667 -1.2454684 5
35.320515 -21.478735 8.771862 30
36.300343 -13.951159 9.6729908 3
42.803188 -25.989185 7.032764 22
44.040817 -16.960825 8.3069124 38
43.051212 -26.119267 3.5099082 20
44.192513 -17.054663 4.9750319 39
18.720058 -11.350302 0 5
9.9908972 -6.0625453 -0.81272364 5
13.446066 -5.1986799 -0.50471574 4
6.8167963 -4.1430602 -1.113397 23
8.4459753 -3.266304 -0.94492561 6
5.0854077 -3.0980046 -1.2594196 6
6.2350583 -2.4106138 -1.1725602 4
4.0587978 -2.4812679 -1.353245 5
4.8411312 -1.8702607 -1.2843111 6
32.239487 -16.574106 8.3476648 34
34.48278 -17.719902 6.1210566 3
50.7169 -15.481483 10.291098 28
46.276039 -23.780821 4.5488758 20
63.400909 -19.436783 8.1262579 81
18.931789 -9.7319632 0.37095088 6
11.36974 -5.8464379 -0.67042637 5
15.687712 -4.8309155 -0.28591636 4
7.539587 -3.8796382 -1.0353308 6
9.3350201 -2.8748012 -0.84981424 5
5.5911851 -2.8778028 -1.2132714 4
6.6742735 -2.0529578 -1.1017301 4
4.3888674 -2.2614629 -1.3126516 6
5.201633 -1.5941373 -1.2460297 5
35.320515 -21.478735 8.771862 30
40.555367 -15.586213 10.807828 28
47.691223 -28.957651 7.8364887 3
44.040817 -16.960825 8.3069124 38
51.660629 -31.34359 4.2123423 1
44.192513 -17.054663 4.9750319 39
18.720058 -11.350302 0 5
35.599876 -13.753312 1.331503 1
9.9908972 -6.0625453 -0.81272364 5
13.446066 -5.1986799 -0.50471574 4
6.8167963 -4.1430602 -1.113397 23
8.4459753 -3.266304 -0.94492561 6
5.0854077 -3.0980046 -1.2594196 6
6.2350583 -2.4106138 -1.1725602 4
4.0587978 -2.4812679 -1.353245 5
4.8411312 -1.8702607 -1.2843111 6
32.239487 -16.574106 8.3476648 34
40.309528 -20.714443 7.1563215 1
50.7169 -15.481483 10.291098 28
46.276039 -23.780821 4.5488758 20
63.400909 -19.436783 8.1262579 81
18.931789 -9.7319632 0.37095088 6
11.36974 -5.8464379 -0.67042637 5
15.687712 -4.8309155 -0.28591636 4
7.539587 -3.8796382 -1.0353308 6
9.3350201 -2.8748012 -0.84981424 5
5.5911851 -2.8778028 -1.2132714 4
6.6742735 -2.0529578 -1.1017301 4
4.3888674 -2.2614629 -1.3126516 6
5.201633 -1.5941373 -1.2460297 5
36.167557 -14.052485 9.651248 18
42.745651 -26.169161 7.0390267 23
43.861347 -17.076578 8.2847939 39
42.976467 -26.289896 3.5116479 25
44.004631 -17.167732 4.9609208 38
18.695393 -11.429274 0 5
9.9792442 -6.1056347 -0.81359345 5
13.443212 -5.2542915 -0.50532955 4
6.8057857 -4.1706061 -1.1140912 23
8.436264 -3.2981429 -0.94518614 6
5.074019 -3.1166232 -1.2594196 6
6.2330608 -2.4361367 -1.1738626 3
4.0374079 -2.4885504 -1.349113 5
4.8478036 -1.8932813 -1.2879373 6
32.189335 -16.697767 8.3504715 36
34.378143 -17.825706 6.1140323 18
50.723122 -15.686839 10.303966 29
46.212887 -23.962883 4.5512729 23
63.516449 -19.727156 8.1502924 1
18.918182 -9.8127975 0.37138718 5
11.359314 -5.8938212 -0.67108274 5
15.696151 -4.8965631 -0.28639629 4
7.5407314 -3.9152534 -1.0374604 6
9.3386879 -2.9134402 -0.85111898 5
5.5805998 -2.8982763 -1.2132714 4
6.6667042 -2.0774062 -1.1017301 5
4.3891187 -2.2819924 -1.3152381 6
5.1841192 -1.6095896 -1.2432221 5
40.733143 -15.826111 10.870639 4
47.935242 -29.346857 7.8942456 1
43.861347 -17.076578 8.2847939 39
50.602997 -30.956118 4.1352801 1
44.004631 -17.167732 4.9609208 38
18.695393 -11.429274 0 5
35.514317 -13.870068 1.3301942 1
9.9781799 -6.1073766 -0.81359345 5
13.443212 -5.2542915 -0.50532955 4
6.8057857 -4.1706061 -1.1140912 23
8.4362612 -3.2981484 -0.94518614 6
5.074019 -3.1166232 -1.2594196 6
6.2326355 -2.4372244 -1.1738626 3
4.0374079 -2.4885504 -1.349113 5
4.8474736 -1.8941272 -1.2879373 6
32.189335 -16.697767 8.3504715 36
34.378143 -17.825706 6.1140323 18
50.720383 -15.695692 10.303966 29
46.212887 -23.962883 4.5512729 23
63.513 -19.738241 8.1502924 1
18.918182 -9.8127975 0.37138718 5
11.359314 -5.8938212 -0.67108274 5
15.695297 -4.899302 -0.28639629 4
7.5407314 -3.9152534 -1.0374604 6
9.3381786 -2.9150701 -0.85111898 5
5.5800943 -2.8992503 -1.2132714 4
6.6663418 -2.0785694 -1.1017301 5
4.38872 -2.2827585 -1.3152381 6
5.1841192 -1.6095896 -1.2432221 5
42.599266 -26.28441 7.0299807 27
41.489601 -16.320309 7.8472004 3
42.901421 -26.450226 3.5130396 25
43.838028 -17.279295 4.9488997 40
18.680922 -11.510205 0 5
9.9737759 -6.1526504 -0.8149851 5
13.436409 -5.3057718 -0.505768 4
6.793293 -4.1956401 -1.1144383 24
8.4362612 -3.3321409 -0.94648838 5
5.0734997 -3.1407585 -1.2620206 6
6.2263799 -2.4598696 -1.1742967 4
4.0450191 -2.5127885 -1.3546224 5
4.8340616 -1.908367 -1.2861241 6
32.286266 -16.891344 8.3909016 27
34.517017 -18.050886 6.1499329 13
50.716808 -15.888779 10.31445 28
46.329788 -24.229086 4.5711007 20
18.91482 -9.8949976 0.37199801 3
11.340883 -5.9345946 -0.67121398 5
15.694784 -4.9593263 -0.28670171 4
7.5358109 -3.9461579 -1.0386775 6
9.3279467 -2.9476488 -0.85111898 5
5.5721135 -2.9198506 -1.2137475 5
6.6684661 -2.1047935 -1.1032963 5
4.3807254 -2.298064 -1.3152381 6
5.1807942 -1.6284044 -1.2437837 5
40.801853 -16.016951 10.903856 25
48.161167 -29.716829 7.948523 1
43.858749 -17.252108 8.2956362 13
43.838028 -17.279295 4.9488997 40
18.680922 -11.510205 0 5
35.470333 -13.995785 1.3303688 1
9.9748497 -6.1509099 -0.8149851 5
13.436409 -5.3057718 -0.505768 4
6.793293 -4.1956401 -1.1144383 24
8.4362631 -3.3321354 -0.94648838 5
5.0734997 -3.1407585 -1.2620206 6
6.226809 -2.4587827 -1.1742967 4
4.0450191 -2.5127885 -1.3546224 5
4.8343949 -1.9075233 -1.2861241 6
32.286266 -16.891344 8.3909016 27
34.517017 -18.050886 6.1499329 13
50.719578 -15.879927 10.31445 28
46.329788 -24.229086 4.5711007 20
63.646053 -20.011255 8.175848 1
18.91482 -9.8949976 0.37199801 3
11.340883 -5.9345946 -0.67121398 5
15.695649 -4.9565868 -0.28670171 4
7.5358109 -3.9461579 -1.0386775 6
9.3284607 -2.9460206 -0.85111898 5
5.5726228 -2.9188781 -1.2137475 5
6.6688333 -2.1036298 -1.1032963 5
4.3811259 -2.2972996 -1.3152381 6
5.1807942 -1.6284044 -1.2437837 5
35.292946 -21.971521 8.8217201 29
35.008827 -13.877344 9.3667841 9
42.593868 -26.476507 7.04355 13
36.417122 -14.464903 6.8961163 4
43.671913 -17.381365 4.9366179 39
18.649021 -11.576046 0 5
9.9586334 -6.1865869 -0.81533301 6
13.432667 -5.3558493 -0.50629407 5
6.7898488 -4.224689 -1.1161736 23
8.4320955 -3.362854 -0.94726968 6
5.0589089 -3.1549747 -1.2609802 5
6.2186213 -2.479418 -1.1742967 5
4.036664 -2.5261884 -1.3546224 5
4.8348045 -1.9262351 -1.2879373 6
32.40461 -17.09038 8.4363852 25
34.647011 -18.265446 6.1838827 6
50.727474 -16.067293 10.326842 27
46.51796 -24.524292 4.5976834 24
18.926121 -9.9809914 0.37287065 4
11.336597 -5.9803252 -0.67213291 4
15.700558 -5.0154481 -0.28709438 4
7.5380425 -3.9792371 -1.0408071 6
9.3305035 -2.9807224 -0.85220623 6
5.5629125 -2.9373412 -1.2137475 4
6.6618209 -2.1257327 -1.1032963 5
4.3756185 -2.3129444 -1.3158848 6
5.1846547 -1.6485201 -1.2460297 5
35.292946 -21.971521 8.8217201 29
40.924423 -16.221884 10.950965 23
46.832424 -29.111696 7.7449822 4
41.44212 -16.460529 7.8485012 36
43.674946 -17.373743 4.9366179 39
18.649021 -11.576046 0 5
35.444614 -14.121652 1.331154 1
9.9586334 -6.1865869 -0.81533301 6
13.432667 -5.3558493 -0.50629407 5
6.790586 -4.2235045 -1.1161736 23
8.4320955 -3.362854 -0.94726968 6
5.0594597 -3.1540918 -1.2609802 5
6.2186213 -2.479418 -1.1742967 5
4.0371051 -2.5254838 -1.3546224 5
4.8348045 -1.9262351 -1.2879373 6
32.407593 -17.084723 8.4363852 25
44.469738 -23.434467 7.9379406 1
50.727474 -16.067293 10.326842 27
46.52224 -24.516174 4.5976834 24
63.86311 -20.312437 8.2123575 1
18.927864 -9.9776878 0.37287065 4
11.337641 -5.9783468 -0.67213291 4
15.701431 -5.0127134 -0.28709438 4
7.5387373 -3.9779217 -1.0408071 6
9.3310232 -2.979094 -0.85220623 6
5.5629125 -2.9373412 -1.2137475 4
6.6621919 -2.1245699 -1.1032963 5
4.3760219 -2.3121808 -1.3158848 6
5.1849422 -1.6476153 -1.2460297 5
35.298885 -22.146576 8.842494 9
34.957928 -13.998564 9.3661804 9
42.564121 -26.664459 7.053988 9
36.035072 -14.459008 6.833231 24
43.526371 -17.490868 4.9266877 34
18.695387 -11.695452 0 5
9.9644527 -6.2385263 -0.81759447 5
13.437066 -5.4120369 -0.50717098 5
6.7778983 -4.248498 -1.1165206 23
8.436451 -3.398767 -0.94909286 6
5.0566974 -3.1769423 -1.2630609 6
6.2236323 -2.5066245 -1.1769013 5
4.028265 -2.5395606 -1.3546224 5
4.8280511 -1.9431 -1.2879373 5
32.388626 -17.219473 8.4470539 18
41.334942 -21.967072 7.3916268 18
50.741192 -16.266737 10.34114 27
46.946587 -24.949585 4.6482339 22
18.970165 -10.08477 0.37439772 3
11.325521 -6.0225763 -0.67265803 4
15.705247 -5.0744014 -0.28748709 4
7.5335684 -4.0088778 -1.0420241 6
9.3181973 -3.0108826 -0.85198879 5
5.559123 -2.9602036 -1.215176 5
6.6594353 -2.1493261 -1.1040792 5
4.3679247 -2.3274419 -1.3158848 5
5.1791592 -1.6657039 -1.2460297 5
38.350021 -24.061293 9.6075001 1
41.074753 -16.447596 11.006529 20
46.476677 -29.115946 7.7028828 9
41.697456 -16.730679 7.9079165 3
43.523319 -17.498465 4.9266877 34
18.695387 -11.695452 0 5
35.453049 -14.268609 1.3333352 1
9.9644527 -6.2385263 -0.81759447 5
13.437066 -5.4120369 -0.50717098 5
6.7771573 -4.2496805 -1.1165206 23
8.436451 -3.398767 -0.94909286 6
5.0561428 -3.1778247 -1.2630609 6
6.2236323 -2.5066245 -1.1769013 5
4.027822 -2.5402637 -1.3546224 5
4.8280511 -1.9431 -1.2879373 5
32.385624 -17.225124 8.4470539 18
44.490383 -23.6541 7.9570613 1
50.741192 -16.266737 10.34114 27
46.94223 -24.957779 4.6482339 22
64.228806 -20.675879 8.2686424 1
18.968405 -10.08808 0.37439772 3
11.324469 -6.0245523 -0.67265803 4
15.704364 -5.0771375 -0.28748709 4
7.5328684 -4.0101924 -1.0420241 6
9.3176727 -3.0125086 -0.85198879 5
5.559123 -2.9602036 -1.215176 5
6.6590605 -2.1504886 -1.1040792 5
4.3675189 -2.3282044 -1.3158848 5
5.1788678 -1.6666079 -1.2460297 5
35.262947 -22.304567 8.85392 6
34.949108 -14.143884 9.377655 4
42.47448 -26.825575 7.0553799 3
35.984119 -14.59191 6.8336644 39
53.614002 -33.83609 4.4196978 39
42.355522 -17.209614 4.8015146 34
18.684111 -11.783906 0 5
9.9520617 -6.2816653 -0.81846422 5
13.433339 -5.4678407 -0.50778472 4
6.7615356 -4.2744918 -1.1165206 21
8.4216356 -3.4287288 -0.94883245 6
5.0382676 -3.1924047 -1.2615004 6
6.2144036 -2.5294185 -1.1769013 5
4.0205112 -2.5563004 -1.355311 5
4.8208971 -1.9607826 -1.2879373 6
32.384521 -17.377115 8.4633389 18
41.537529 -22.279705 7.4431357 2
50.734917 -16.470028 10.352101 26
47.179642 -25.306253 4.6809173 24
19.166971 -10.284007 0.37906623 9
11.31111 -6.0707417 -0.67318314 4
15.704657 -5.1408782 -0.28783613 4
7.5356064 -4.0471702 -1.044458 6
9.3207722 -3.0512822 -0.85329348 5
5.5460753 -2.9793973 -1.2146999 4
6.6487865 -2.1741147 -1.1036876 5
4.3610821 -2.3453407 -1.3165313 5
5.1819925 -1.6885896 -1.2482759 5
38.110718 -24.106245 9.5695868 1
41.198597 -16.672649 11.056054 30
46.32988 -29.260975 7.6962719 16
41.699745 -16.9093 7.9200602 1
53.614002 -33.83609 4.4196978 39
42.355522 -17.209614 4.8015146 34
18.684111 -11.783906 0 5
35.435234 -14.412574 1.334644 1
9.9520617 -6.2816653 -0.81846422 5
13.433339 -5.4678407 -0.50778472 4
6.7615356 -4.2744918 -1.1165206 21
8.4216356 -3.4287288 -0.94883245 6
5.0382676 -3.1924047 -1.2615004 6
6.2144036 -2.5294185 -1.1769013 5
4.0205112 -2.5563004 -1.355311 5
4.8208971 -1.9607826 -1.2879373 6
32.384521 -17.377115 8.4633389 18
44.36422 -23.796 7.9500375 16
50.734917 -16.470028 10.352101 26
47.179642 -25.306253 4.6809173 24
64.197418 -20.925756 8.2744226 1
19.166971 -10.284007 0.37906623 9
11.31111 -6.0707417 -0.67318314 4
15.704657 -5.1408782 -0.28783613 4
7.5356064 -4.0471702 -1.044458 6
9.3207722 -3.0512822 -0.85329348 5
5.5460753 -2.9793973 -1.2146999 4
6.6487865 -2.1741147 -1.1036876 5
4.3610821 -2.3453407 -1.3165313 5
5.1819925 -1.6885896 -1.2482759 5
37.898491 -24.157621 9.5373878 13
34.917492 -14.273137 9.3824863 4
43.136589 -27.454937 7.1813312 2
41.831856 -17.133135 7.95649 30
53.983757 -34.333569 4.4600554 34
42.334293 -17.373404 4.8059573 59
18.718811 -11.897344 0 5
9.9511118 -6.3297586 -0.82020378 6
13.428036 -5.5203967 -0.50831085 4
6.7549233 -4.3033934 -1.117909 21
8.4165144 -3.4609401 -0.94961381 6
5.0332737 -3.2139244 -1.2630609 6
6.2123694 -2.5539019 -1.1782038 5
4.0095406 -2.5690207 -1.3546224 5
4.8095345 -1.9757569 -1.2867285 6
32.501495 -17.586285 8.5099459 16
41.355251 -22.36817 7.4244056 13
50.728416 -16.663872 10.362586 26
47.281593 -25.573875 4.6998734 25
19.287041 -10.435313 0.38216403 9
11.314 -6.1232619 -0.67462718 4
15.7056 -5.2019486 -0.28818518 4
7.5367045 -4.0817242 -1.0465877 6
9.3147926 -3.0853631 -0.85372841 5
5.5464292 -3.0045862 -1.2170807 4
6.6458459 -2.1988583 -1.1044707 5
4.352869 -2.3605497 -1.3165313 5
5.1760664 -1.7066678 -1.2482759 5
37.898491 -24.157621 9.5373878 13
41.346748 -16.900795 11.111618 30
46.84354 -29.814707 7.798912 16
41.831856 -17.133135 7.95649 30
53.983757 -34.333569 4.4600554 34
42.334293 -17.373404 4.8059573 59
18.718811 -11.897344 0 5
35.449421 -14.562757 1.3370869 1
9.9511118 -6.3297586 -0.82020378 6
13.428036 -5.5203967 -0.50831085 4
6.7549233 -4.3033934 -1.117909 21
8.4165144 -3.4609401 -0.94961381 6
5.0332737 -3.2139244 -1.2630609 6
6.2123694 -2.5539019 -1.1782038 5
4.0095406 -2.5690207 -1.3546224 5
4.8095345 -1.9757569 -1.2867285 6
32.501495 -17.586285 8.5099459 16
44.558895 -24.101095 7.9999862 3
50.728416 -16.663872 10.362586 26
47.281593 -25.573875 4.6998734 25
64.472755 -21.264729 8.3194494 1
19.287041 -10.435313 0.38216403 9
11.314 -6.1232619 -0.67462718 4
15.7056 -5.2019486 -0.28818518 4
7.5367045 -4.0817242 -1.0465877 6
9.3147926 -3.0853631 -0.85372841 5
5.5464292 -3.0045862 -1.2170807 4
6.6458459 -2.1988583 -1.1044707 5
4.352869 -2.3605497 -1.3165313 5
5.1760664 -1.7066678 -1.2482759 5
34.748867 -14.338885 9.3498726 9
43.424599 -27.841051 7.2446551 6
34.682587 -14.339863 6.6046758 9
54.090096 -34.653679 4.4783211 35
42.471703 -17.594566 4.8281698 53
18.672939 -11.955307 0 5
9.9489613 -6.3748388 -0.82176936 5
13.421196 -5.5696826 -0.50874931 5
6.7468643 -4.3297844 -1.1189501 19
8.4049911 -3.4888313 -0.94961381 6
5.0308113 -3.2358947 -1.2651418 6
6.199317 -2.5726027 -1.1773355 4
4.0030179 -2.5836077 -1.355311 5
4.8096805 -1.9944801 -1.2885417 6
32.464386 -17.705633 8.5155611 23
39.394642 -21.476793 7.0849104 31
50.754395 -16.859074 10.379268 27
39.127956 -21.331396 3.8958619 57
64.849152 -21.627542 8.3772564 81
19.335718 -10.544699 0.38382205 7
11.311165 -6.1703143 -0.67567736 4
15.704855 -5.2595534 -0.28849059 4
7.5318394 -4.1114521 -1.0478047 6
9.3115969 -3.1186047 -0.85438085 5
5.5407429 -3.0253155 -1.2180331 5
6.6478858 -2.2240119 -1.1060369 4
4.3513727 -2.378448 -1.3184712 5
5.1634436 -1.7215172 -1.2465913 5
41.476608 -17.114609 11.161747 23
46.025433 -29.508835 7.678875 13
42.002342 -17.365822 7.9998589 9
54.090096 -34.653679 4.4783211 35
42.474773 -17.587152 4.8281698 53
18.672939 -11.955307 0 5
35.430935 -14.692671 1.3382211 1
9.9489613 -6.3748388 -0.82176936 5
13.421196 -5.5696826 -0.50874931 5
6.7476201 -4.3286071 -1.1189501 19
8.4049911 -3.4888313 -0.94961381 6
5.0313754 -3.2350166 -1.2651418 6
6.199317 -2.5726027 -1.1773355 4
4.0034685 -2.5829091 -1.355311 5
4.8096805 -1.9944801 -1.2885417 6
32.467476 -17.699966 8.5155611 23
39.398392 -21.469917 7.0849104 31
50.754395 -16.859074 10.379268 27
47.629631 -25.955879 4.7425795 25
64.849152 -21.627542 8.3772564 81
19.337559 -10.541324 0.38382205 7
11.312242 -6.1683397 -0.67567736 4
15.70577 -5.2568178 -0.28849059 4
7.5325565 -4.1101375 -1.0478047 6
9.3121405 -3.1169794 -0.85438085 5
5.5407429 -3.0253155 -1.2180331 5
6.6482744 -2.2228515 -1.1060369 4
4.351788 -2.3776884 -1.3184712 5
5.163744 -1.7206159 -1.2465913 5
34.754295 -14.490418 9.3655758 16
43.432457 -28.071253 7.2630959 18
54.444546 -35.162922 4.5183306 35
42.623344 -17.831947 4.8524728 41
18.660498 -12.044008 0 5
35.397587 -14.831122 1.3390064 20
9.9213409 -6.4085526 -0.82142144 5
13.412212 -5.6236644 -0.5091877 5
6.733788 -4.3546543 -1.1192973 21
8.4013205 -3.523458 -0.95065564 6
5.0174332 -3.2521043 -1.2646216 5
6.201201 -2.6000636 -1.1795062 3
3.9939752 -2.5975649 -1.355311 5
4.8068132 -2.0139682 -1.2897505 6
32.359692 -17.795364 8.5043306 23
39.001339 -21.439301 7.0275474 35
50.75972 -17.067659 10.393088 25
39.068535 -21.47625 3.8973868 13
65.044525 -21.957922 8.4128513 81
19.517817 -10.732587 0.38818514 3
11.302682 -6.2169809 -0.67646503 4
15.710074 -5.3223615 -0.28892693 5
7.5283098 -4.1437025 -1.0493258 6
9.3053713 -3.1526852 -0.85481566 5
5.5339155 -3.047972 -1.2189853 5
6.6424222 -2.2479939 -1.1064284 5
4.3451586 -2.394789 -1.3191179 6
5.1689482 -1.7434137 -1.2493991 5
41.689018 -17.381325 11.236033 4
45.71114 -29.544271 7.6444297 1
54.444546 -35.162922 4.5183306 35
42.620235 -17.839386 4.8524728 41
18.660498 -12.044008 0 5
35.397587 -14.831122 1.3390064 20
9.9202232 -6.410284 -0.82142144 5
13.412212 -5.6236644 -0.5091877 5
6.7330275 -4.3558302 -1.1192973 21
8.4013176 -3.5234635 -0.95065564 6
5.0168657 -3.25298 -1.2646216 5
6.2007465 -2.6011457 -1.1795062 3
3.9935215 -2.5982621 -1.355311 5
4.8064623 -2.014807 -1.2897505 6
32.356583 -17.801012 8.5043306 23
38.997597 -21.446106 7.0275474 35
50.756741 -17.076519 10.393088 25
47.937698 -26.363007 4.7833252 1
65.040695 -21.969275 8.4128513 81
19.51594 -10.735992 0.38818514 3
11.301597 -6.2189531 -0.67646503 4
15.708219 -5.3278399 -0.28892693 5
7.5275865 -4.1450171 -1.0493258 6
9.3042698 -3.1559331 -0.85481566 5
5.5333838 -3.0489378 -1.2189853 5
6.6416368 -2.2503126 -1.1064284 5
4.3443227 -2.3963056 -1.3191179 6
5.168644 -1.7443157 -1.2493991 5
36.086864 -23.528688 9.1416407 3
32.805397 -13.805847 8.852211 9
44.127483 -28.72846 7.3953094 13
35.539028 -14.985273 6.7876935 27
54.570133 -35.501049 4.5385098 1
42.766972 -18.067694 4.8759913 40
35.380428 -14.962048 1.3402278 25
9.9218969 -6.4581194 -0.82333499 5
13.404994 -5.672977 -0.50962615 4
6.7289138 -4.3848972 -1.1210326 19
8.394166 -3.5532413 -0.95117652 6
5.0162826 -3.2762916 -1.2672226 6
6.1898193 -2.6207347 -1.179072 5
3.9909101 -2.6154482 -1.3573769 5
4.7908158 -2.0269575 -1.2873329 6
35.162865 -19.497232 9.2595844 18
38.757805 -21.48193 6.9971099 59
50.767212 -17.267653 10.40691 25
48.080902 -26.649815 4.8064213 30
65.235207 -22.276237 8.4475355 75
19.727253 -10.937632 0.39311543 1
11.291827 -6.2624516 -0.6771214 4
15.716477 -5.3888116 -0.28940687 5
7.5138001 -4.1699562 -1.0493258 6
9.3031788 -3.189997 -0.85568553 6
5.5232425 -3.0672708 -1.2189853 5
6.6458201 -2.2763174 -1.1083859 4
4.3342414 -2.4095247 -1.3184712 6
5.1582184 -1.7598766 -1.2482759 5
40.349537 -26.308548 10.222413 6
41.827923 -17.602274 11.289182 6
47.390869 -30.853399 7.9426084 3
35.539028 -14.985273 6.7876935 27
54.570133 -35.501049 4.5385098 1
42.770123 -18.06023 4.8759913 40
35.380428 -14.962048 1.3402278 25
9.9230242 -6.456387 -0.82333499 5
13.404994 -5.672977 -0.50962615 4
6.7296796 -4.3837228 -1.1210326 19
8.3941689 -3.5532358 -0.95117652 6
5.0168548 -3.2754159 -1.2672226 6
6.1902766 -2.6196544 -1.179072 5
3.9913664 -2.6147518 -1.3573769 5
4.7911696 -2.0261214 -1.2873329 6
35.166267 -19.491095 9.2595844 18
38.761555 -21.475168 6.9971099 59
50.770229 -17.258791 10.40691 25
48.085552 -26.641422 4.8064213 30
65.248474 -22.268053 8.4487514 75
19.72916 -10.934189 0.39311543 1
11.29292 -6.2604814 -0.6771214 4
15.718354 -5.3833308 -0.28940687 5
7.5145273 -4.1686449 -1.0493258 6
9.3042917 -3.1867492 -0.85568553 6
5.523778 -3.0663066 -1.2189853 5
6.6466146 -2.2739975 -1.1083859 4
4.3350825 -2.4080117 -1.3184712 6
5.1585255 -1.7589763 -1.2482759 5
35.732704 -23.475897 9.072567 18
32.741379 -13.913634 8.8479843 6
47.150406 -30.931717 7.9203405 9
34.603012 -14.733126 6.6185541 26
55.140396 -36.146664 4.596437 9
42.93325 -18.305948 4.9018626 39
35.429089 -15.128622 1.3440669 20
9.9045973 -6.4937224 -0.8236829 4
13.398897 -5.7256236 -0.51015222 4
6.7122674 -4.4058275 -1.1206856 16
8.3908606 -3.5864217 -0.95221829 5
5.0074325 -3.2942533 -1.2677429 5
6.1833591 -2.6422136 -1.1795062 7
3.9741969 -2.6233654 -1.3546224 5
4.7885308 -2.0447369 -1.2885417 6
35.110771 -19.620859 9.2629538 26
38.789833 -21.668146 7.0158405 52
50.772339 -17.457447 10.419778 25
48.216209 -26.934217 4.8288641 26
65.461212 -22.59606 8.4864779 59
19.804333 -11.066401 0.39538422 2
11.273177 -6.3010807 -0.67725271 4
15.720725 -5.4455223 -0.28979954 4
7.5085926 -4.1996975 -1.0505428 6
9.2978182 -3.2208359 -0.85612041 6
5.5216064 -3.0903664 -1.22089 4
6.6386361 -2.2971845 -1.1083859 4
4.3308644 -2.4254906 -1.3197645 5
5.145443 -1.7745951 -1.2465913 5
40.324894 -26.493549 10.239552 1
41.985039 -17.841145 11.34837 4
47.150406 -30.931717 7.9203405 9
34.603012 -14.733126 6.6185541 26
55.140396 -36.146664 4.596437 9
42.930054 -18.313442 4.9018626 39
35.429089 -15.128622 1.3440669 20
9.9045973 -6.4937224 -0.8236829 4
13.398897 -5.7256236 -0.51015222 4
6.7114983 -4.4069986 -1.1206856 16
8.3908606 -3.5864217 -0.95221829 5
5.0068579 -3.2951274 -1.2677429 5
6.1833591 -2.6422136 -1.1795062 7
3.9737391 -2.624059 -1.3546224 5
4.7885308 -2.0447369 -1.2885417 6
35.107349 -19.626986 9.2629538 26
38.786045 -21.674915 7.0158405 52
50.772339 -17.457447 10.419778 25
48.211502 -26.942633 4.8288641 26
65.461212 -22.59606 8.4864779 59
19.802402 -11.069857 0.39538422 2
11.272077 -6.3030486 -0.67725271 4
15.719777 -5.4482613 -0.28979954 4
7.5078597 -4.2010074 -1.0505428 6
9.2972565 -3.2224586 -0.85612041 6
5.5216064 -3.0903664 -1.22089 4
6.6382351 -2.2983432 -1.1083859 4
4.330441 -2.4262466 -1.3197645 5
5.145133 -1.7754933 -1.2465913 5
40.30703 -26.69384 10.259807 16
34.645233 -14.872702 9.377655 30
34.456043 -14.819972 6.6007729 28
43.104675 -18.574951 4.9295626 39
35.504169 -15.314773 1.3490399 18
9.8994513 -6.5423627 -0.82524848 4
13.389292 -5.7796435 -0.51059067 4
6.6973643 -4.4329357 -1.1210326 17
8.382226 -3.6191223 -0.95273918 5
4.9988198 -3.3161626 -1.2687832 6
6.1781545 -2.6668088 -1.1803744 6
3.9740918 -2.6452727 -1.3580657 5
4.7921433 -2.0670733 -1.2915636 6
35.4235 -19.974516 9.3657131 26
38.745068 -21.838755 7.0228648 28
50.7845 -17.670025 10.435505 26
48.383621 -27.272026 4.8561001 23
65.64502 -22.929094 8.5211611 41
19.985958 -11.26883 0.39987826 3
11.277166 -6.3602672 -0.67895931 4
15.720934 -5.5132794 -0.29019225 4
7.4988942 -4.2321572 -1.0514555 5
9.2971363 -3.2606292 -0.85720772 6
5.5102425 -3.1105833 -1.22089 4
6.6414208 -2.3267324 -1.1103435 5
4.3173141 -2.4397244 -1.3184712 5
5.1385908 -1.7943391 -1.2465913 5
40.30703 -26.69384 10.259807 16
42.26936 -18.145132 11.443192 1
34.456043 -14.819972 6.6007729 28
43.104675 -18.574951 4.9295626 39
35.504169 -15.314773 1.3490399 18
9.8994513 -6.5423627 -0.82524848 4
13.389292 -5.7796435 -0.51059067 4
6.6973643 -4.4329357 -1.1210326 17
8.382226 -3.6191223 -0.95273918 5
4.9988198 -3.3161626 -1.2687832 6
6.1781545 -2.6668088 -1.1803744 6
3.9740918 -2.6452727 -1.3580657 5
4.7921433 -2.0670733 -1.2915636 6
35.4235 -19.974516 9.3657131 26
38.745068 -21.838755 7.0228648 28
50.7845 -17.670025 10.435505 26
48.383621 -27.272026 4.8561001 23
65.64502 -22.929094 8.5211611 41
20.018616 -11.287247 0.40053269 3
11.277166 -6.3602672 -0.67895931 4
15.720934 -5.5132794 -0.29019225 4
7.4988942 -4.2321572 -1.0514555 5
9.2971363 -3.2606292 -0.85720772 6
5.5102425 -3.1105833 -1.22089 4
6.6414208 -2.3267324 -1.1103435 5
4.3173141 -2.4397244 -1.3184712 5
5.1385908 -1.7943391 -1.2465913 5
37.400536 -24.956871 9.5415421 2
34.586433 -14.990651 9.375843 31
46.76099 -31.157118 7.892158 18
34.379261 -14.92937 6.5960021 32
43.244766 -18.814564 4.9530811 38
19.958277 -8.6927567 0.75897676 2
9.8827801 -6.5810275 -0.82577038 5
13.389649 -5.8353262 -0.51137984 4
6.6859679 -4.4590364 -1.1217268 14
8.3786592 -3.6523318 -0.95378107 5
4.9953423 -3.3390331 -1.2708641 5
6.1710653 -2.6893413 -1.1808084 7
3.9628391 -2.6577885 -1.3573769 5
4.7782254 -2.0808856 -1.2897505 6
35.698753 -20.294304 9.457242 28
38.977749 -22.149559 7.0790567 23
50.766502 -17.862663 10.444561 26
48.768818 -27.713928 4.9044714 27
65.887474 -23.272125 8.5631466 41
20.079048 -11.413885 0.4025397 3
11.257067 -6.4008279 -0.67909062 4
15.720442 -5.5748005 -0.29054126 4
7.4927011 -4.2632174 -1.0526725 5
9.2880459 -3.2938941 -0.85742521 6
5.5036159 -3.1322279 -1.2218424 4
6.6355858 -2.350724 -1.1107351 5
4.3171639 -2.4595644 -1.3210578 6
5.1322966 -1.8122652 -1.2465913 5
40.317341 -26.90361 10.286294 16
34.586433 -14.990651 9.375843 31
34.379261 -14.92937 6.5960021 32
43.244766 -18.814564 4.9530811 38
19.958277 -8.6927567 0.75897676 2
9.8827801 -6.5810275 -0.82577038 5
13.389649 -5.8353262 -0.51137984 4
6.6859679 -4.4590364 -1.1217268 14
8.3786592 -3.6523318 -0.95378107 5
4.9953423 -3.3390331 -1.2708641 5
6.1710653 -2.6893413 -1.1808084 7
3.9628391 -2.6577885 -1.3573769 5
4.7782254 -2.0808856 -1.2897505 6
35.698753 -20.294304 9.457242 28
38.977749 -22.149559 7.0790567 23
50.766502 -17.862663 10.444561 26
48.768818 -27.713928 4.9044714 27
65.887474 -23.272125 8.5631466 41
20.079048 -11.413885 0.4025397 3
11.257067 -6.4008279 -0.67909062 4
15.720442 -5.5748005 -0.29054126 4
7.4927011 -4.2632174 -1.0526725 5
9.2880459 -3.2938941 -0.85742521 6
5.5036159 -3.1322279 -1.2218424 4
6.6355858 -2.350724 -1.1107351 5
4.3171639 -2.4595644 -1.3210578 6
5.1322966 -1.8122652 -1.2465913 5
40.146725 -26.982586 10.265519 25
34.538757 -15.106235 9.3764477 28
42.747734 -28.68779 7.2303901 9
34.35437 -15.054162 6.6007729 32
43.418911 -19.0618 4.9802589 38
19.879019 -8.7367821 0.75705725 3
9.8712559 -6.6207128 -0.82664019 5
13.399959 -5.892767 -0.51251972 4
6.6731982 -4.4825644 -1.1220737 12
8.3687782 -3.681097 -0.95404154 6
4.990324 -3.3596807 -1.2724247 6
6.1733832 -2.7147422 -1.1829791 5
3.9559941 -2.672262 -1.3580657 5
4.7757411 -2.0986693 -1.2909591 6
35.730606 -20.469492 9.483634 20
41.396282 -14.639737 11.7396 1
38.919086 -22.287285 7.0817885 20
50.780987 -18.057219 10.459812 23
49.10672 -28.121803 4.9478316 28
66.095062 -23.592239 8.6002636 41
11.248775 -6.4455709 -0.67987823 4
15.718342 -5.6327987 -0.29084668 4
7.4806757 -4.2892752 -1.0529768 5
9.2958307 -3.331389 -0.85916477 6
5.4995847 -3.1541257 -1.2232708 4
6.6393809 -2.3768694 -1.1126926 5
4.3089843 -2.4738672 -1.3210578 6
5.1285534 -1.8300914 -1.2471528 5
40.146725 -26.982586 10.265519 25
42.602753 -18.63266 11.567607 1
46.556686 -31.244406 7.8751092 1
34.35437 -15.054162 6.6007729 32
43.422234 -19.05422 4.9802589 38
19.879019 -8.7367821 0.75705725 3
9.8712559 -6.6207128 -0.82664019 5
13.399959 -5.892767 -0.51251972 4
6.6739807 -4.4814 -1.1220737 12
8.3687782 -3.681097 -0.95404154 6
4.9909105 -3.3588095 -1.2724247 6
6.1733832 -2.7147422 -1.1829791 5
3.9564605 -2.6715715 -1.3580657 5
4.7757411 -2.0986693 -1.2909591 6
35.73418 -20.463259 9.483634 20
41.396282 -14.639737 11.7396 1
38.922974 -22.280491 7.0817885 20
50.780987 -18.057219 10.459812 23
49.111626 -28.113232 4.9478316 28
66.095062 -23.592239 8.6002636 41
20.309891 -11.629706 0.40790635 3
11.2499 -6.4436078 -0.67987823 4
15.719322 -5.6300602 -0.29084668 4
7.4814239 -4.2879701 -1.0529768 5
9.2964125 -3.3297665 -0.85916477 6
5.4995847 -3.1541257 -1.2232708 4
6.6397958 -2.3757105 -1.1126926 5
4.3094158 -2.4731152 -1.3210578 6
5.1288733 -1.8291962 -1.2471528 5
40.163654 -27.197987 10.294084 13
34.354874 -15.1689 9.3408136 36
42.659641 -28.845156 7.2324772 6
34.380424 -15.208847 6.6159525 28
43.612339 -19.319456 5.0097876 38
9.8604794 -6.6635122 -0.82768387 4
13.377025 -5.9384923 -0.51243204 4
6.6623964 -4.5074463 -1.1227678 8
8.3581505 -3.7112954 -0.95430195 5
4.9710641 -3.3707159 -1.2703439 5
6.1638694 -2.736275 -1.1829791 6
3.9570401 -2.6921344 -1.3615091 5
4.7683864 -2.1153271 -1.2909591 6
35.130871 -20.280916 9.3421288 13
41.322189 -14.776018 11.733137 2
38.919819 -22.459423 7.0954466 20
50.763832 -18.250969 10.469344 24
49.539509 -28.58824 5.0009966 18
45.250206 -16.331617 5.8940468 9
11.251119 -6.496573 -0.68132228 4
15.72543 -5.6942515 -0.29132664 4
7.4771519 -4.3202682 -1.054498 5
9.2894163 -3.3638902 -0.85959971 6
5.4864168 -3.1720748 -1.2227947 4
6.6430745 -2.4030652 -1.1146502 5
4.3070264 -2.4917727 -1.3229976 6
5.1339188 -1.8512104 -1.2499605 5
44.624176 -30.219124 11.438217 1
34.354874 -15.1689 9.3408136 36
46.246372 -31.270817 7.841012 18
34.380424 -15.208847 6.6159525 28
43.011234 -29.061079 3.618283 1
43.608963 -19.327068 5.0097876 38
19.782167 -8.776741 0.75452703 1
9.8604794 -6.6635122 -0.82768387 4
13.377025 -5.9384923 -0.51243204 4
6.6616096 -4.5086088 -1.1227678 8
8.3581505 -3.7112954 -0.95430195 5
4.9704757 -3.3715835 -1.2703439 5
6.1638694 -2.736275 -1.1829791 6
3.9565704 -2.6928251 -1.3615091 5
4.7683864 -2.1153271 -1.2909591 6
38.702991 -22.352285 10.293918 1
41.322189 -14.776018 11.733137 2
38.915897 -22.466215 7.0954466 20
50.763832 -18.250969 10.469344 24
49.534515 -28.596886 5.0009966 18
66.27607 -23.917978 8.6346426 18
20.570162 -11.879094 0.4140147 1
11.249985 -6.4985366 -0.68132228 4
15.724438 -5.6969905 -0.29132664 4
7.4763975 -4.3215728 -1.054498 5
9.2888288 -3.3655117 -0.85959971 6
5.4864168 -3.1720748 -1.2227947 4
6.6426544 -2.4042246 -1.1146502 5
4.306591 -2.4925244 -1.3229976 6
5.1335955 -1.8521063 -1.2499605 5
40.025326 -27.318811 10.284216 4
34.412048 -15.345097 9.3716154 34
34.191814 -15.275509 6.590364 38
43.755699 -19.584274 5.0348749 37
9.8442345 -6.7052274 -0.82837975 4
