# .PCD v0.7 - Point Cloud Data file format
VERSION 0.7
FIELDS x y z intensity
SIZE 4 4 4 4
TYPE F F F F
COUNT 1 1 1 1
WIDTH 1421
HEIGHT 1
VIEWPOINT 0 0 0 1 0 0 0
POINTS 1421
DATA ascii
36.632099 -27.459005 3.1908731 40
24.782719 -18.568426 0 28
13.016996 -9.7611475 -1.1324552 4
7.88521 -5.9216299 -1.3775164 4
10.717505 -5.4020104 -1.253563 6
5.6116114 -4.2233901 -1.4867498 5
7.1767473 -3.6165395 -1.4108925 6
4.3239212 -3.2648187 -1.5426304 5
5.3263836 -2.6823788 -1.4771087 19
35.783611 -23.06786 6.7223916 18
26.027565 -16.784544 0.53997743 27
15.90856 -10.26222 -0.99362773 4
9.0233078 -5.8243294 -1.312494 20
12.207542 -5.111455 -1.1525116 5
6.2520113 -4.0364642 -1.4370694 5
7.8861127 -3.2989364 -1.3499522 13
4.7612123 -3.077018 -1.5085795 5
5.8058009 -2.4217262 -1.442003 17
38.718895 -29.044632 6.7975616 43
37.815559 -18.996742 7.448204 34
36.632099 -27.459005 3.1908731 40
24.782719 -18.568426 0 28
13.015291 -9.7634201 -1.1324552 4
7.88521 -5.9216299 -1.3775164 4
10.717502 -5.4020157 -1.253563 6
5.6116114 -4.2233901 -1.4867498 5
7.1761155 -3.6177919 -1.4108925 6
4.3239212 -3.2648187 -1.5426304 5
5.3259153 -2.6833084 -1.4771087 19
35.783611 -23.06786 6.7223916 18
54.626781 -35.216114 5.683208 1
60.71183 -25.351463 8.0623674 18
26.027565 -16.784544 0.53997743 27
15.90856 -10.26222 -0.99362773 4
27.912554 -11.69244 -0.52763414 1
9.0233078 -5.8243294 -1.312494 20
12.20665 -5.1135855 -1.1525116 5
6.251307 -4.0375557 -1.4370694 5
7.8855367 -3.3003128 -1.3499522 13
4.760675 -3.0778489 -1.5085795 5
5.8058009 -2.4217262 -1.442003 17
38.528397 -29.11244 6.7819047 4
37.867619 -19.188719 7.4716239 34
36.382782 -27.470978 3.1774786 40
24.580078 -18.550888 0 25
13.005006 -9.8268414 -1.1345428 4
7.8644915 -5.9491186 -1.3775164 5
10.71853 -5.449532 -1.2559072 7
5.6026778 -4.2473879 -1.4883103 5
7.165638 -3.6439345 -1.4113266 6
4.3163223 -3.2828047 -1.5440078 6
5.3208418 -2.7040799 -1.4783175 20
25.928997 -16.849417 0.53914845 30
15.855898 -10.306805 -0.99257761 4
9.005002 -5.8571439 -1.3127983 16
12.191019 -5.1571326 -1.152729 5
6.2433448 -4.0633698 -1.4384979 5
7.8671436 -3.3249383 -1.3487777 14
4.7559714 -3.0984044 -1.5105193 5
5.804049 -2.4448097 -1.4436876 18
38.528397 -29.11244 6.7819047 4
37.867619 -19.188719 7.4716239 34
36.382782 -27.470978 3.1774786 40
24.580078 -18.550888 0 25
13.006721 -9.8245707 -1.1345428 4
7.86553 -5.9477458 -1.3775164 5
10.718533 -5.4495268 -1.2559072 7
5.6034193 -4.2464099 -1.4883103 5
7.1662736 -3.6426837 -1.4113266 6
4.3168945 -3.2820513 -1.5440078 6
5.3213143 -2.703151 -1.4783175 20
60.531384 -25.512178 8.0495882 1
25.931936 -16.844889 0.53914845 30
15.857697 -10.304037 -0.99257761 4
28.009232 -11.836493 -0.53016472 1
9.0060244 -5.8555722 -1.3127983 16
12.192819 -5.1528769 -1.152729 5
6.2440538 -4.0622797 -1.4384979 5
7.8683043 -3.322192 -1.3487777 14
4.7570524 -3.0967441 -1.5105193 5
5.8044763 -2.4437964 -1.4436876 18
36.477295 -27.752844 6.4367557 65
37.78624 -19.305227 7.4681544 34
36.331192 -27.621668 3.1809578 36
24.530367 -18.641373 0 28
12.983992 -9.8751993 -1.1354125 4
7.8634853 -5.9873013 -1.38064 5
10.718105 -5.4941115 -1.2579908 8
5.5873632 -4.263483 -1.4877901 5
7.1607289 -3.6697948 -1.412629 6
4.3002658 -3.2919612 -1.5419418 5
5.3166404 -2.7229924 -1.4795263 19
37.373966 -24.445568 7.0517411 16
25.804821 -16.884253 0.53766495 28
77.567032 -33.074074 4.4174161 40
15.881926 -10.394852 -0.99625331 4
8.9907084 -5.8881249 -1.3134067 16
12.20545 -5.2059736 -1.155556 6
6.238759 -4.088346 -1.4404026 6
7.8640599 -3.3511662 -1.3499522 15
4.7467575 -3.1125021 -1.5105193 5
5.79634 -2.4630313 -1.4436876 18
36.477295 -27.752844 6.4367557 65
37.78624 -19.305227 7.4681544 34
36.331192 -27.621668 3.1809578 36
24.530367 -18.641373 0 28
12.983992 -9.8751993 -1.1354125 4
7.8634853 -5.9873013 -1.38064 5
10.718105 -5.4941115 -1.2579908 8
5.5873632 -4.263483 -1.4877901 5
7.1607289 -3.6697948 -1.412629 6
4.3002658 -3.2919612 -1.5419418 5
5.3166404 -2.7229924 -1.4795263 19
37.373966 -24.445568 7.0517411 16
61.04245 -25.966244 8.1289959 1
25.804821 -16.884253 0.53766495 28
15.881926 -10.394852 -0.99625331 4
27.870953 -11.887156 -0.5282886 1
8.9907084 -5.8881249 -1.3134067 16
12.20545 -5.2059736 -1.155556 6
6.238759 -4.088346 -1.4404026 6
7.8640599 -3.3511662 -1.3499522 15
4.7467575 -3.1125021 -1.5105193 5
5.79634 -2.4630313 -1.4436876 18
36.187634 -27.732407 6.4026575 77
37.611374 -19.38175 7.4469032 36
36.228615 -27.743773 3.1804359 25
40.675179 -20.987337 4.8070025 1
24.459194 -18.722328 0 28
12.965278 -9.9325991 -1.1368042 4
7.8464665 -6.0177298 -1.3813342 5
10.698861 -5.5314918 -1.2579908 8
5.5763226 -4.285944 -1.4888306 5
7.1478753 -3.6947682 -1.412629 7
4.2944551 -3.3113592 -1.5440078 5
5.3071022 -2.7415345 -1.4795263 20
37.32552 -24.600338 7.0587654 28
25.762421 -16.985233 0.53801405 30
77.506142 -33.368317 4.4205561 81
15.889308 -10.479095 -0.99901009 4
8.9721699 -5.9208398 -1.313711 14
12.18949 -5.2495313 -1.1557734 5
6.2326403 -4.1155095 -1.4423072 6
7.8568525 -3.3805461 -1.3507353 16
4.7378778 -3.130384 -1.5111659 5
5.794426 -2.4861259 -1.4453721 17
40.835293 -21.006845 11.423864 1
36.187634 -27.732407 6.4026575 77
37.611374 -19.38175 7.4469032 36
36.228615 -27.743773 3.1804359 25
40.671516 -20.994432 4.8070025 1
24.459194 -18.722328 0 28
12.965278 -9.9325991 -1.1368042 4
7.8454161 -6.0190988 -1.3813342 5
10.698861 -5.5314918 -1.2579908 8
5.5755749 -4.2869172 -1.4888306 5
7.1478753 -3.6947682 -1.412629 7
4.2938766 -3.3121085 -1.5440078 5
5.3071022 -2.7415345 -1.4795263 20
37.321224 -24.606853 7.0587654 28
25.759457 -16.989731 0.53801405 30
15.887478 -10.481869 -0.99901009 4
8.971137 -5.9224052 -1.313711 14
12.188574 -5.2516584 -1.1557734 5
6.2326403 -4.1155095 -1.4423072 6
7.8562627 -3.381917 -1.3507353 16
4.7373319 -3.131211 -1.5111659 5
5.7939916 -2.4871373 -1.4453721 17
36.070076 -27.852753 6.3998747 65
37.518238 -19.508116 7.4425669 34
36.373474 -28.066833 3.2021804 16
40.212799 -20.944683 4.7617941 6
24.261747 -18.712587 0 30
12.960367 -10.004445 -1.1395875 4
7.8311343 -6.0538735 -1.3827225 5
10.682925 -5.5729671 -1.2585118 6
5.5636888 -4.3103213 -1.489871 5
7.1364689 -3.7220798 -1.4130632 6
4.277916 -3.3248715 -1.5426304 6
5.2991705 -2.7620883 -1.4801307 19
37.146469 -24.687435 7.0427661 23
43.068993 -18.687227 5.7519665 3
25.782352 -17.140774 0.53980291 26
15.890527 -10.567681 -1.0016356 5
0.21565856 -0.098761886 -0.0035341408 4
8.96383 -5.9648714 -1.3158407 17
12.208072 -5.313179 -1.1594702 5
6.2215996 -4.141046 -1.4432596 6
7.8438144 -3.4106894 -1.3507353 16
4.7298422 -3.151232 -1.5124592 5
5.7803655 -2.5064218 -1.444249 17
40.602993 -21.075909 11.38038 1
36.070076 -27.852753 6.3998747 65
37.518238 -19.508116 7.4425669 34
36.373474 -28.066833 3.2021804 16
40.212799 -20.944683 4.7617941 6
24.261747 -18.712587 0 30
12.958621 -10.006706 -1.1395875 4
7.8311343 -6.0538735 -1.3827225 5
10.682922 -5.5729723 -1.2585118 6
5.5636888 -4.3103213 -1.489871 5
7.135819 -3.7233253 -1.4130632 6
4.277916 -3.3248715 -1.5426304 6
5.2986884 -2.7630129 -1.4801307 19
37.146469 -24.687435 7.0427661 23
60.955173 -26.458448 8.1429901 18
25.782352 -17.140774 0.53980291 26
15.890527 -10.567681 -1.0016356 5
0.21564132 -0.098799519 -0.0035341408 4
8.96383 -5.9648714 -1.3158407 17
12.207144 -5.31531 -1.1594702 5
6.2208772 -4.1421318 -1.4432596 6
7.8432183 -3.4120581 -1.3507353 16
4.7292919 -3.1520579 -1.5124592 5
5.7803655 -2.5064218 -1.444249 17
40.314251 -21.105007 11.319983 50
36.046886 -28.036253 6.413096 36
37.408485 -19.617237 7.4343266 36
36.460365 -28.337505 3.2185321 28
40.02058 -21.022491 4.7476826 16
24.245632 -18.835512 0 28
12.96888 -10.087107 -1.1435884 7
7.8138599 -6.0842161 -1.3834167 5
10.663404 -5.6102285 -1.2585118 8
5.5486093 -4.3297157 -1.489871 5
7.1184201 -3.745919 -1.4121948 6
4.2719574 -3.3442328 -1.5446965 6
5.2868638 -2.7803636 -1.4795263 19
36.081375 -24.161528 6.8566289 37
43.222946 -18.942547 5.7817817 13
25.7992 -17.282143 0.54141724 26
15.878428 -10.639764 -1.0032109 4
8.9429541 -5.9961247 -1.3158407 17
12.179395 -5.3538828 -1.1586003 5
6.2206445 -4.1733961 -1.4465928 6
7.8425665 -3.4443734 -1.3526928 16
4.7262788 -3.1739347 -1.5150458 5
5.782743 -2.53146 -1.4470567 16
40.314251 -21.105007 11.319983 50
36.046886 -28.036253 6.413096 36
37.408485 -19.617237 7.4343266 36
36.460365 -28.337505 3.2185321 28
40.02058 -21.022491 4.7476826 16
24.245632 -18.835512 0 28
12.97064 -10.084844 -1.1435884 7
7.8138599 -6.0842161 -1.3834167 5
10.663407 -5.6102233 -1.2585118 8
5.5486093 -4.3297157 -1.489871 5
7.1190739 -3.7446766 -1.4121948 6
4.2719574 -3.3442328 -1.5446965 6
5.2873492 -2.7794406 -1.4795263 19
36.081375 -24.161528 6.8566289 37
41.649796 -18.184052 8.8188982 1
62.012691 -27.162128 8.2963276 4
25.7992 -17.282143 0.54141724 26
15.878428 -10.639764 -1.0032109 4
8.9429541 -5.9961247 -1.3158407 17
12.180328 -5.351757 -1.1586003 5
6.2213731 -4.1723104 -1.4465928 6
7.8431673 -3.4430046 -1.3526928 16
4.7268319 -3.1731095 -1.5150458 5
5.782743 -2.53146 -1.4470567 16
39.849258 -21.030256 11.208856 44
36.168102 -28.323557 6.4513683 32
37.280098 -19.707811 7.4217491 39
36.456535 -28.528969 3.2265341 28
40.478001 -21.434311 4.8104 4
24.179098 -18.912729 0 28
12.897859 -10.097044 -1.1401094 5
7.8053279 -6.1192636 -1.385499 5
10.649138 -5.6478829 -1.2590327 8
5.5495963 -4.3601866 -1.4940326 5
7.1109686 -3.7705696 -1.4130632 7
4.264616 -3.3613586 -1.5460737 6
5.2823911 -2.7992291 -1.4807351 20
36.042004 -24.308664 6.8644338 30
40.96162 -18.105381 5.4866691 6
25.803911 -17.409544 0.54272616 29
15.859614 -10.703536 -1.0042611 5
8.9312468 -6.0313039 -1.3170577 17
12.18984 -5.4042225 -1.1612098 7
6.2115698 -4.1956668 -1.4475451 5
7.8294492 -3.4679956 -1.3523014 17
4.720284 -3.191473 -1.5163389 5
5.7720871 -2.5496399 -1.4464952 16
39.849258 -21.030256 11.208856 44
36.168102 -28.323557 6.4513683 32
37.280098 -19.707811 7.4217491 39
36.456535 -28.528969 3.2265341 28
40.481739 -21.427244 4.8104 4
24.179098 -18.912729 0 28
12.897859 -10.097044 -1.1401094 5
7.8063955 -6.1179013 -1.385499 5
10.649138 -5.6478829 -1.2590327 8
5.5503573 -4.3592176 -1.4940326 5
7.1109686 -3.7705696 -1.4130632 7
4.2652025 -3.3606143 -1.5460737 6
5.2823911 -2.7992291 -1.4807351 20
36.046246 -24.302374 6.8644338 30
41.528625 -18.295359 8.8060293 1
63.073013 -27.876112 8.4505768 9
25.80695 -17.405041 0.54272616 29
15.861483 -10.700767 -1.0042611 5
8.9322987 -6.0297446 -1.3170577 17
12.190784 -5.4020948 -1.1612098 7
6.2115698 -4.1956668 -1.4475451 5
7.8300543 -3.466629 -1.3523014 17
4.7208409 -3.1906493 -1.5163389 5
5.7725325 -2.5486324 -1.4464952 16
39.441517 -20.991442 11.114638 38
36.094284 -28.469568 6.4558916 40
36.425282 -28.710093 3.2326229 4
40.01627 -21.360039 4.763885 9
24.201294 -19.066648 0 29
12.9154 -10.183708 -1.1448061 4
7.7908211 -6.1497183 -1.3865403 5
10.644707 -5.6932268 -1.2608559 10
5.5331898 -4.3770475 -1.4935124 5
7.0999346 -3.7965286 -1.4134972 6
4.2478023 -3.370996 -1.5440078 6
5.2725873 -2.817651 -1.4807351 20
35.91626 -24.397522 6.8558488 22
25.837002 -17.556837 0.54464591 27
15.873582 -10.789756 -1.0074117 4
0.2169265 -0.10196536 -0.0035777721 4
8.9091434 -6.0594912 -1.3167534 18
12.190042 -5.452745 -1.1629494 7
6.2009435 -4.2200861 -1.4484974 5
7.8291793 -3.4989712 -1.3542589 17
4.7036877 -3.2030294 -1.5143991 5
5.7658262 -2.5697567 -1.4470567 15
39.441517 -20.991442 11.114638 38
36.094284 -28.469568 6.4558916 40
38.742222 -30.536623 3.4384124 3
40.012539 -21.367023 4.763885 9
24.201294 -19.066648 0 29
12.9154 -10.183708 -1.1448061 4
7.7897477 -6.1510782 -1.3865403 5
10.644707 -5.6932268 -1.2608559 10
5.5324259 -4.3780131 -1.4935124 5
7.0999346 -3.7965286 -1.4134972 6
4.2472138 -3.3717377 -1.5440078 6
5.2725873 -2.817651 -1.4807351 20
35.911999 -24.403791 6.8558488 22
41.269413 -18.35347 8.7645664 1
40.714611 -18.166374 5.4620256 1
25.833935 -17.561346 0.54464591 27
15.871698 -10.792525 -1.0074117 4
8.9080868 -6.0610461 -1.3167534 18
12.189091 -5.4548721 -1.1629494 7
6.2009435 -4.2200861 -1.4484974 5
7.828568 -3.5003378 -1.3542589 17
4.7031288 -3.2038503 -1.5143991 5
5.765378 -2.5707629 -1.4470567 15
37.405655 -29.759092 10.143991 24
39.252571 -21.067043 11.082024 28
35.975304 -28.579985 6.4524121 31
36.25843 -28.784334 3.2267082 4
24.109135 -19.130804 0 30
12.860249 -10.213215 -1.1430666 4
7.7701654 -6.1797733 -1.3868873 5
10.616014 -5.7256289 -1.259814 15
5.5190215 -4.3988237 -1.4940326 5
7.0953078 -3.8259606 -1.4152337 6
4.2391696 -3.3895469 -1.545385 6
5.2733989 -2.8417888 -1.483757 19
36.007935 -24.653162 6.8905787 6
41.252113 -18.518515 8.7745752 38
39.788883 -17.920233 5.3461099 35
25.743608 -17.631641 0.54403508 34
15.840107 -10.852096 -1.0078056 4
8.8971081 -6.0991211 -1.3182745 17
12.190406 -5.5066075 -1.1649066 8
6.1902232 -4.2444825 -1.4494498 5
7.8253074 -3.5317016 -1.3558251 15
4.70187 -3.2270834 -1.5176321 5
5.7563686 -2.5908723 -1.4470567 14
39.252571 -21.067043 11.082024 28
35.975304 -28.579985 6.4524121 31
24.109135 -19.130804 0 30
12.860249 -10.213215 -1.1430666 4
7.7701654 -6.1797733 -1.3868873 5
10.616014 -5.7256289 -1.259814 15
5.5190215 -4.3988237 -1.4940326 5
7.0953078 -3.8259606 -1.4152337 6
4.2391696 -3.3895469 -1.545385 6
5.2733989 -2.8417888 -1.483757 19
36.007935 -24.653162 6.8905787 6
41.252113 -18.518515 8.7745752 38
63.094086 -28.413568 8.479785 1
25.743608 -17.631641 0.54403508 34
15.840107 -10.852096 -1.0078056 4
28.66851 -12.949305 -0.54848993 1
8.8971081 -6.0991211 -1.3182745 17
12.190406 -5.5066075 -1.1649066 8
6.1902232 -4.2444825 -1.4494498 5
7.8253074 -3.5317016 -1.3558251 15
4.70187 -3.2270834 -1.5176321 5
5.7563686 -2.5908723 -1.4470567 14
37.443249 -30.013779 10.183981 2
40.356987 -21.850616 11.416617 3
35.574619 -28.474924 6.3991785 28
37.897118 -20.55311 7.5878525 31
36.102055 -28.876528 3.2221854 18
40.660439 -22.088331 4.8597898 9
24.070097 -19.244022 0 28
12.853878 -10.285219 -1.1458498 4
7.7590513 -6.217505 -1.3889698 5
10.608064 -5.7716289 -1.2613767 14
5.502862 -4.4190216 -1.4940326 5
7.0790744 -3.850765 -1.4147997 6
4.2341995 -3.4110985 -1.5481398 6
5.2693429 -2.8645716 -1.4855702 19
36.010818 -24.849487 6.9085288 6
41.201847 -18.677692 8.778388 4
25.510132 -17.609428 0.54045737 30
15.853638 -10.946967 -1.0112188 5
8.8746939 -6.1316895 -1.3182745 18
12.183739 -5.557447 -1.1662112 8
6.1806808 -4.2713289 -1.4508783 5
7.8123102 -3.560359 -1.3558251 16
4.6900105 -3.2442949 -1.5176321 5
5.749053 -2.6129594 -1.4476182 14
40.356987 -21.850616 11.416617 3
35.574619 -28.474924 6.3991785 28
37.897118 -20.55311 7.5878525 31
36.102055 -28.876528 3.2221854 18
24.070097 -19.244022 0 28
12.852081 -10.287463 -1.1458498 4
7.7590513 -6.217505 -1.3889698 5
10.608061 -5.7716336 -1.2613767 14
5.502862 -4.4190216 -1.4940326 5
7.078402 -3.8520005 -1.4147997 6
4.2341995 -3.4110985 -1.5481398 6
5.2688432 -2.8654912 -1.4855702 19
36.010818 -24.849487 6.9085288 6
41.198589 -18.684883 8.778388 4
39.586514 -18.012257 5.3281593 1
25.510132 -17.609428 0.54045737 30
15.853638 -10.946967 -1.0112188 5
28.422995 -12.970075 -0.54473764 1
8.8746939 -6.1316895 -1.3182745 18
12.182768 -5.5595732 -1.1662112 8
6.179935 -4.272408 -1.4508783 5
7.8116889 -3.5617223 -1.3558251 16
4.6894441 -3.2451131 -1.5176321 5
5.749053 -2.6129594 -1.4476182 14
37.393429 -30.188848 10.199042 23
39.171085 -21.385748 11.101954 13
35.432606 -28.564739 6.3915238 20
37.803539 -20.673458 7.5835161 31
36.03405 -29.028973 3.2251425 41
23.957994 -19.291857 0 29
12.816094 -10.332262 -1.1458498 4
7.733449 -6.2414403 -1.3882756 5
10.58785 -5.8086276 -1.2613767 19
5.493104 -4.442821 -1.4955933 5
7.0713897 -3.8802369 -1.4161019 6
4.2241321 -3.4273734 -1.5488285 6
5.2524261 -2.8803682 -1.483757 20
36.501686 -25.376791 7.019743 6
25.567532 -17.781151 0.54298794 30
15.800982 -10.992259 -1.0102998 5
28.359383 -13.060846 -0.54438859 34
8.8613815 -6.1683025 -1.3194915 16
12.167812 -5.6041474 -1.1666462 9
6.1609564 -4.2911477 -1.4499259 5
7.8036942 -3.5910301 -1.3566079 15
4.6879907 -3.2683711 -1.5208653 5
5.7398973 -2.6330113 -1.4476182 12
37.393429 -30.188848 10.199042 23
39.171085 -21.385748 11.101954 13
35.432606 -28.564739 6.3915238 20
37.803539 -20.673458 7.5835161 31
36.03405 -29.028973 3.2251425 41
40.495857 -22.182352 4.8493366 1
23.957994 -19.291857 0 29
40.495583 -22.200573 1.6114842 1
12.817897 -10.330025 -1.1458498 4
7.733449 -6.2414403 -1.3882756 5
10.587852 -5.8086224 -1.2613767 19
5.493104 -4.442821 -1.4955933 5
7.0720663 -3.8790026 -1.4161019 6
4.2241321 -3.4273734 -1.5488285 6
5.2529287 -2.8794515 -1.483757 20
36.501686 -25.376791 7.019743 6
39.727287 -18.235538 5.355237 1
25.567532 -17.781151 0.54298794 30
15.800982 -10.992259 -1.0102998 5
28.361662 -13.055897 -0.54438859 34
8.8613815 -6.1683025 -1.3194915 16
12.168791 -5.6020236 -1.1666462 9
6.1617055 -4.290072 -1.4499259 5
7.8043213 -3.589668 -1.3566079 15
4.688561 -3.2675531 -1.5208653 5
5.7398973 -2.6330113 -1.4476182 12
37.289722 -30.320734 10.199562 1
39.094074 -21.521179 11.101351 9
36.649105 -29.757317 6.629858 27
37.759174 -20.820744 7.5891538 26
36.151329 -29.332161 3.2447996 41
23.865269 -19.354895 0 30
12.808866 -10.396717 -1.1482854 4
7.7212176 -6.2762084 -1.390011 5
10.569687 -5.8467479 -1.2616372 14
5.4718771 -4.4573312 -1.4940326 5
7.0649471 -3.9072373 -1.4174043 6
4.2158623 -3.445142 -1.5502058 6
5.2492166 -2.9012885 -1.4855702 20
36.673786 -25.686806 7.0700817 16
25.525778 -17.884632 0.54342425 28
15.801359 -11.074575 -1.0127941 5
27.731009 -12.883189 -0.53313166 20
8.8438597 -6.2020473 -1.3201001 17
12.169494 -5.653904 -1.1686033 9
6.1466928 -4.3115549 -1.4499259 5
7.7850232 -3.6137731 -1.3554335 14
4.6771269 -3.2838991 -1.5208653 5
5.7395167 -2.6571188 -1.4498644 12
37.289722 -30.320734 10.199562 1
39.094074 -21.521179 11.101351 9
36.649105 -29.757317 6.629858 27
37.759174 -20.820744 7.5891538 26
36.151329 -29.332161 3.2447996 41
40.237534 -22.22381 4.8276467 1
23.865269 -19.354895 0 30
40.234161 -22.240273 1.6041553 1
12.808866 -10.396717 -1.1482854 4
7.7212176 -6.2762084 -1.390011 5
10.569687 -5.8467479 -1.2616372 14
5.4718771 -4.4573312 -1.4940326 5
7.0649471 -3.9072373 -1.4174043 6
4.2158623 -3.445142 -1.5502058 6
5.2492166 -2.9012885 -1.4855702 20
36.673786 -25.686806 7.0700817 16
38.957821 -27.286707 4.1582003 1
39.652134 -18.368891 5.3537159 1
25.525778 -17.884632 0.54342425 28
87.115509 -40.442677 5.0317092 1
15.801359 -11.074575 -1.0127941 5
27.731009 -12.883189 -0.53313166 20
8.8438597 -6.2020473 -1.3201001 17
12.169494 -5.653904 -1.1686033 9
6.1466928 -4.3115549 -1.4499259 5
7.7850232 -3.6137731 -1.3554335 14
4.6771269 -3.2838991 -1.5208653 5
5.7395167 -2.6571188 -1.4498644 12
37.293037 -30.529436 10.228127 4
39.071281 -21.677767 11.115242 16
36.550224 -29.878683 6.629858 30
37.530666 -20.857347 7.5570612 20
36.339691 -29.685417 3.270545 38
40.370003 -22.471994 4.8524728 39
23.940363 -19.547791 0 31
12.77818 -10.442292 -1.1486332 4
7.6984477 -6.30021 -1.3896639 5
10.556757 -5.8853974 -1.2624185 8
5.4684057 -4.4847631 -1.4971539 5
7.0584049 -3.9342389 -1.4187068 6
4.2044144 -3.4591033 -1.5502058 6
5.2459249 -2.9222186 -1.4873832 19
36.628761 -25.836746 7.0778861 16
31.358103 -14.654218 4.2395878 30
25.658306 -18.104658 0.54752558 29
15.719678 -11.095238 -1.0099061 5
27.64739 -12.955993 -0.53234631 23
8.8354034 -6.2399311 -1.3219255 15
12.159698 -5.6984529 -1.1694732 10
6.140379 -4.3375797 -1.4518306 5
7.7797065 -3.6427069 -1.3566079 15
4.6721258 -3.3035755 -1.5228052 5
5.7284665 -2.6751082 -1.4493028 10
39.071281 -21.677767 11.115242 16
36.550224 -29.878683 6.629858 30
37.530666 -20.857347 7.5570612 20
36.339691 -29.685417 3.270545 38
40.373924 -22.464949 4.8524728 39
23.940363 -19.547791 0 31
40.457031 -22.538929 1.6160212 1
12.77818 -10.442292 -1.1486332 4
7.6995468 -6.2988658 -1.3896639 5
10.556757 -5.8853974 -1.2624185 8
5.4691882 -4.4838085 -1.4971539 5
7.0584049 -3.9342389 -1.4187068 6
4.205018 -3.4583693 -1.5502058 6
5.2459249 -2.9222186 -1.4873832 19
36.675652 -25.860237 7.086081 1
38.696865 -27.285526 4.139462 1
39.541542 -18.477175 5.3470225 1
25.661467 -18.100178 0.54752558 29
87.001274 -40.740868 5.032887 1
15.721614 -11.092494 -1.0099061 5
27.649649 -12.951173 -0.53234631 23
8.8364935 -6.238389 -1.3219255 15
12.160694 -5.6963305 -1.1694732 10
6.140379 -4.3375797 -1.4518306 5
7.7803421 -3.6413488 -1.3566079 15
4.6727023 -3.3027599 -1.5228052 5
5.7289333 -2.674108 -1.4493028 10
39.044067 -21.841259 11.129132 23
36.262238 -29.855009 6.5964565 30
36.564083 -20.48761 7.3766456 28
36.133781 -29.728096 3.2613254 35
23.908669 -19.661415 0 31
12.762829 -10.504272 -1.1505468 4
7.6832433 -6.3304296 -1.3907051 5
10.538317 -5.9234295 -1.262679 13
5.4497337 -4.4997563 -1.4961135 5
7.0467749 -3.9600589 -1.4191408 7
4.2040181 -3.4822335 -1.5543379 6
5.235693 -2.9405124 -1.4873832 19
36.70192 -26.071047 7.1087141 16
38.715084 -27.501211 4.1516638 45
31.230448 -14.727613 4.2292438 23
25.439203 -18.0767 0.5441224 29
15.75605 -11.199382 -1.014632 5
27.55455 -13.024117 -0.53138644 16
8.8166857 -6.2706347 -1.3222297 15
12.14524 -5.7408719 -1.169908 9
6.1291986 -4.3618345 -1.452783 5
7.7675838 -3.6684852 -1.3566079 15
4.6591778 -3.3176494 -1.5221585 5
5.730587 -2.6992719 -1.4521104 8
39.044067 -21.841259 11.129132 23
36.262238 -29.855009 6.5964565 30
36.564083 -20.48761 7.3766456 28
36.133781 -29.728096 3.2613254 35
50.516689 -28.350985 6.0848632 13
23.908669 -19.661415 0 31
12.760996 -10.506499 -1.1505468 4
7.6821384 -6.3317709 -1.3907051 5
10.538313 -5.9234343 -1.262679 13
5.4489489 -4.5007067 -1.4961135 5
7.0460839 -3.9612887 -1.4191408 7
4.2034101 -3.4829669 -1.5543379 6
5.2351794 -2.9414263 -1.4873832 19
36.697369 -26.077454 7.1087141 16
38.710285 -27.507967 4.1516638 45
40.633873 -19.16922 5.5043149 40
25.436049 -18.081142 0.5441224 29
15.754095 -11.202131 -1.014632 5
27.550009 -13.033729 -0.53138644 16
8.8155899 -6.2721734 -1.3222297 15
12.143235 -5.745111 -1.169908 9
6.128437 -4.3629045 -1.452783 5
7.7663026 -3.6711965 -1.3566079 15
4.6580195 -3.3192756 -1.5221585 5
5.7301154 -2.7002723 -1.4521104 8
38.756691 -21.867397 11.069945 9
35.98299 -29.847029 6.5654902 36
36.640934 -20.707485 7.4074378 36
36.197372 -30.003586 3.2769814 18
41.882908 -23.708208 5.0547352 3
23.755598 -19.681911 0 28
12.731997 -10.561162 -1.1514164 4
7.6645918 -6.3646317 -1.3917463 5
10.520859 -5.9644713 -1.2631999 14
5.4361734 -4.5237784 -1.4971539 5
7.031517 -3.9870872 -1.4191408 7
4.1887727 -3.4968085 -1.5536492 6
5.2264748 -2.9617898 -1.4879876 18
36.621616 -26.226158 7.1126161 1
31.17815 -14.849555 4.2298522 89
25.341158 -18.153866 0.54351157 29
15.700756 -11.251071 -1.0138443 5
27.517841 -13.142156 -0.53169185 16
8.8026237 -6.3116727 -1.3237509 15
12.126593 -5.7917247 -1.1703429 12
6.1143985 -4.3867674 -1.453259 5
7.7550249 -3.7006991 -1.3569995 15
4.6477838 -3.3377349 -1.5228052 5
5.7179794 -2.7202108 -1.4515489 8
38.756691 -21.867397 11.069945 9
35.98299 -29.847029 6.5654902 36
36.640934 -20.707485 7.4074378 36
50.191734 -28.41103 6.0582085 6
23.755598 -19.681911 0 28
12.731997 -10.561162 -1.1514164 4
7.6645918 -6.3646317 -1.3917463 5
10.520859 -5.9644713 -1.2631999 14
5.4361734 -4.5237784 -1.4971539 5
7.031517 -3.9870872 -1.4191408 7
4.1887727 -3.4968085 -1.5536492 6
5.2264748 -2.9617898 -1.4879876 18
36.621616 -26.226158 7.1126161 1
37.347775 -26.746235 4.0159187 1
41.17498 -19.609234 5.5873723 3
25.341158 -18.153866 0.54351157 29
28.786726 -13.741756 1.6699095 1
15.700756 -11.251071 -1.0138443 5
27.517841 -13.142156 -0.53169185 16
8.8026237 -6.3116727 -1.3237509 15
12.126593 -5.7917247 -1.1703429 12
6.1143985 -4.3867674 -1.453259 5
7.7550249 -3.7006991 -1.3569995 15
4.6477838 -3.3377349 -1.5228052 5
5.7179794 -2.7202108 -1.4515489 8
38.635841 -21.977365 11.057262 24
35.853889 -29.951815 6.560967 23
36.609074 -20.858416 7.4156775 42
36.052219 -30.096191 3.2733283 24
41.894913 -23.908484 5.0662332 9
23.634928 -19.721462 0 28
12.696968 -10.607141 -1.1515905 4
7.6461253 -6.3945255 -1.3924404 5
10.504292 -6.0036263 -1.2637209 13
5.4203491 -4.542727 -1.4971539 6
7.0218325 -4.01405 -1.420009 6
4.1691875 -3.5052164 -1.5508944 6
5.2245317 -2.9848263 -1.4904052 18
37.326893 -26.9289 4.0237627 49
31.074684 -14.933582 4.2228551 250
25.208721 -18.192474 0.54202807 34
15.683652 -11.321885 -1.0152884 5
27.451529 -13.228367 -0.53129917 18
8.7785273 -6.3409085 -1.3234468 16
12.101813 -5.8318582 -1.169908 15
6.1070042 -4.4138365 -1.4551637 5
7.7531862 -3.7330966 -1.3589571 14
4.6321926 -3.3511059 -1.5215119 5
5.7150407 -2.7433116 -1.4532335 7
38.635841 -21.977365 11.057262 24
35.853889 -29.951815 6.560967 23
36.609074 -20.858416 7.4156775 42
36.052219 -30.096191 3.2733283 24
50.046909 -28.560184 6.0527205 4
23.634928 -19.721462 0 28
12.698818 -10.604924 -1.1515905 4
7.6461253 -6.3945255 -1.3924404 5
10.504295 -6.0036211 -1.2637209 13
5.4203491 -4.542727 -1.4971539 6
7.0225329 -4.0128245 -1.420009 6
4.1691875 -3.5052164 -1.5508944 6
5.2250524 -2.9839146 -1.4904052 18
37.326893 -26.9289 4.0237627 49
31.077286 -14.928159 4.2228551 250
25.208721 -18.192474 0.54202807 34
28.342819 -13.64551 1.6467508 1
15.683652 -11.321885 -1.0152884 5
27.453838 -13.223576 -0.53129917 18
8.7785273 -6.3409085 -1.3234468 16
12.102831 -5.8297458 -1.169908 15
6.1077743 -4.4127703 -1.4551637 5
7.7538371 -3.7317433 -1.3589571 14
4.6327777 -3.3502977 -1.5215119 5
5.7150407 -2.7433116 -1.4532335 7
38.579586 -22.115015 11.062094 18
35.714581 -30.037081 6.5536609 9
36.552517 -20.987057 7.4182801 38
36.979298 -31.078932 3.3669167 1
41.821869 -24.050999 5.0670171 2
23.49667 -19.738613 0 23
12.692209 -10.671059 -1.1541998 4
7.6267715 -6.4214411 -1.3927875 5
10.484329 -6.0384221 -1.2637209 22
5.4127269 -4.5669889 -1.4992347 6
7.0070534 -4.0348625 -1.419575 6
4.1575403 -3.5190227 -1.5508944 5
5.2130251 -3.0000155 -1.4898008 18
37.513424 -27.253082 4.0536137 45
31.036547 -15.03546 4.224072 255
25.233179 -18.337692 0.54386055 30
15.656117 -11.381171 -1.0159447 5
27.40534 -13.31236 -0.53121191 16
8.7554455 -6.3685241 -1.3231424 18
12.081192 -5.8687606 -1.1696905 16
6.0911231 -4.4315562 -1.4546876 5
7.7436419 -3.7585125 -1.3593485 16
4.6294489 -3.371331 -1.5240985 5
5.7059121 -2.7622483 -1.4532335 7
38.579586 -22.115015 11.062094 18
75.113174 -63.178535 13.789269 1
36.552517 -20.987057 7.4182801 38
36.979298 -31.078932 3.3669167 1
49.010632 -28.173342 5.9380007 3
23.49667 -19.738613 0 23
52.033417 -29.947063 2.0952785 1
12.692209 -10.671059 -1.1541998 4
7.6278915 -6.4201097 -1.3927875 5
10.484329 -6.0384221 -1.2637209 22
5.4135242 -4.5660439 -1.4992347 6
7.0070534 -4.0348625 -1.419575 6
4.1581545 -3.518297 -1.5508944 5
5.2130251 -3.0000155 -1.4898008 18
41.028374 -19.812498 8.8412981 1
37.518177 -27.246534 4.0536137 45
31.036547 -15.03546 4.224072 255
25.236378 -18.333288 0.54386055 30
28.690462 -13.930194 1.6696478 27
15.658104 -11.378439 -1.0159447 5
27.407661 -13.307581 -0.53121191 16
8.7565565 -6.3669953 -1.3231424 18
12.082215 -5.866652 -1.1696905 16
6.0911231 -4.4315562 -1.4546876 5
7.7442975 -3.7571607 -1.3593485 16
4.6300368 -3.3705227 -1.5240985 5
5.7063942 -2.7612526 -1.4532335 7
38.481152 -22.237413 11.056054 18
36.844891 -31.208128 6.7812085 16
36.453465 -21.09972 7.4130754 38
36.956245 -31.280333 3.3747447 30
41.653683 -24.138443 5.056303 13
23.389458 -19.788212 0 23
12.652978 -10.713685 -1.1540258 4
7.6148748 -6.4547057 -1.3945229 5
10.467487 -6.0774789 -1.2642417 23
5.4012785 -4.5880814 -1.5002751 5
6.9971857 -4.0617681 -1.4204431 6
4.1458483 -3.5327902 -1.5508944 6
5.2067194 -3.0206273 -1.4910096 19
37.463043 -27.406744 4.0579715 59
30.925907 -15.115383 4.2161617 254
25.47883 -18.645664 0.55049253 28
15.61829 -11.433026 -1.0159447 5
27.376755 -13.410865 -0.53151733 13
8.7482901 -6.4077897 -1.3252721 14
12.070612 -5.9131713 -1.1705604 19
6.0815544 -4.4571447 -1.4561161 5
7.7311354 -3.7841704 -1.3593485 16
4.6162963 -3.3852353 -1.5234518 5
5.7098598 -2.7875576 -1.4566027 6
38.458046 -22.22406 11.049411 1
74.956413 -63.494759 13.8011 1
36.453465 -21.09972 7.4130754 38
36.956245 -31.280333 3.3747447 30
49.05331 -28.437574 5.9557705 1
23.389458 -19.788212 0 23
51.433662 -29.841402 2.0752985 1
12.652978 -10.713685 -1.1540258 4
7.6137486 -6.4560342 -1.3945229 5
10.467487 -6.0774789 -1.2642417 23
5.4004774 -4.5890241 -1.5002751 5
6.9971857 -4.0617681 -1.4204431 6
4.1452317 -3.5335135 -1.5508944 6
5.2067194 -3.0206273 -1.4910096 19
40.692001 -19.82556 8.7836304 1
37.45826 -27.41328 4.0579715 59
30.925907 -15.115383 4.2161617 254
25.475574 -18.65011 0.55049253 28
15.616295 -11.435753 -1.0159447 5
27.374416 -13.415639 -0.53151733 13
8.7471714 -6.4093161 -1.3252721 14
12.06958 -5.9152775 -1.1705604 19
6.0815544 -4.4571447 -1.4561161 5
7.7304749 -3.7855198 -1.3593485 16
4.6157055 -3.3860409 -1.5234518 5
5.7093735 -2.7885542 -1.4566027 6
38.376331 -22.364866 11.049411 13
36.747208 -31.357428 6.7843399 18
36.316341 -21.198439 7.4009323 28
36.852734 -31.425287 3.3757885 34
23.381458 -19.928953 0 26
12.638288 -10.781037 -1.1562873 5
7.5919161 -6.4855056 -1.3948699 5
10.45158 -6.1195707 -1.2650231 18
5.3891912 -4.6135602 -1.5018357 6
6.9822516 -4.0873861 -1.4204431 6
4.1358976 -3.5518177 -1.5522718 6
5.2018957 -3.0433633 -1.4928226 19
37.157097 -27.402559 4.0361824 59
30.859173 -15.223143 4.2146406 255
25.513651 -18.822012 0.55280495 30
15.606413 -11.516632 -1.0180451 5
27.331785 -13.519205 -0.53164822 13
8.7435818 -6.4560757 -1.3283145 9
12.047819 -5.959475 -1.1705604 20
6.0651779 -4.4794044 -1.4561161 5
7.7076921 -3.8094566 -1.3577826 16
4.6110306 -3.4086804 -1.5260384 5
5.7056723 -2.8126881 -1.4582872 5
38.376331 -22.364866 11.049411 13
74.725075 -63.770664 13.801447 1
36.316341 -21.198439 7.4009323 28
36.852734 -31.425287 3.3757885 34
50.060612 -29.267151 6.091135 1
23.381458 -19.928953 0 26
51.763878 -30.287096 2.0930972 168
12.636407 -10.783243 -1.1562873 5
7.5919161 -6.4855056 -1.3948699 5
10.451576 -6.1195755 -1.2650231 18
5.3891912 -4.6135602 -1.5018357 6
6.9815383 -4.0886049 -1.4204431 6
4.1358976 -3.5518177 -1.5522718 6
5.2013645 -3.0442715 -1.4928226 19
40.72348 -20.034731 8.806983 30
37.157097 -27.402559 4.0361824 59
30.856512 -15.228529 4.2146406 255
25.513651 -18.822012 0.55280495 30
15.606413 -11.516632 -1.0180451 5
27.329424 -13.523975 -0.53164822 13
8.7435818 -6.4560757 -1.3283145 9
12.046778 -5.9615779 -1.1705604 20
6.0643959 -4.480463 -1.4561161 5
7.707027 -3.8108022 -1.3577826 16
4.6104355 -3.4094853 -1.5260384 5
5.7056723 -2.8126881 -1.4582872 5
38.318947 -22.510977 11.05545 13
36.650669 -31.496803 6.7867756 20
36.766277 -21.633455 7.5080538 26
36.748489 -31.558611 3.3763103 29
38.373928 -22.615362 4.6779099 2
23.332613 -20.028364 0 27
12.611926 -10.838668 -1.157505 4
7.5804882 -6.5216599 -1.3969524 5
10.423727 -6.1522312 -1.2642417 19
5.3749051 -4.6339417 -1.5023559 6
6.9757047 -4.1179543 -1.4221796 6
4.1252904 -3.5678065 -1.5529605 6
5.1844368 -3.058713 -1.4910096 19
36.913284 -27.422192 4.0200586 38
30.780952 -15.325088 4.2115979 225
15.568121 -11.572529 -1.0181764 5
27.241791 -13.599199 -0.53086287 13
8.7349281 -6.4969258 -1.3304442 4
12.032581 -6.006928 -1.1712128 17
6.0565929 -4.5074668 -1.4580207 5
7.7091489 -3.8453882 -1.3605232 16
4.5965695 -3.4241145 -1.5253917 5
5.7023654 -2.8358371 -1.4599719 5
38.318947 -22.510977 11.05545 13
36.650669 -31.496803 6.7867756 20
36.766277 -21.633455 7.5080538 26
36.748489 -31.558611 3.3763103 29
50.123959 -29.527641 6.110734 31
23.332613 -20.028364 0 27
12.613818 -10.836468 -1.157505 4
7.5816264 -6.5203366 -1.3969524 5
10.423731 -6.1522264 -1.2642417 19
5.3757133 -4.6330042 -1.5023559 6
6.9764237 -4.1167364 -1.4221796 6
4.1259127 -3.5670865 -1.5529605 6
5.1849709 -3.0578082 -1.4910096 19
36.918068 -27.415749 4.0200586 38
30.783627 -15.319715 4.2115979 225
15.570141 -11.569811 -1.0181764 5
27.246532 -13.589695 -0.53086287 13
8.736063 -6.4954014 -1.3304442 4
12.034677 -6.0027275 -1.1712128 17
6.0573797 -4.5064106 -1.4580207 5
7.7104907 -3.8426969 -1.3605232 16
4.597764 -3.4225097 -1.5253917 5
5.7028604 -2.8348417 -1.4599719 5
38.277489 -22.657694 11.065113 4
36.546021 -31.61817 6.7867756 20
36.831997 -21.836864 7.5362434 22
36.666275 -31.699871 3.3783977 30
23.218784 -20.064754 0 25
12.606101 -10.902715 -1.1601143 4
7.5618339 -6.5470634 -1.3972994 5
10.413959 -6.1931109 -1.2655441 19
5.365859 -4.6556158 -1.5039166 5
6.9648509 -4.1411066 -1.4226139 6
5.1789737 -3.0774622 -1.4922183 19
37.382866 -18.700607 8.1106787 28
36.761135 -27.4888 4.0128684 30
30.777014 -15.443965 4.2176824 37
15.547679 -11.633348 -1.0192267 5
27.199085 -13.67885 -0.53081924 13
8.7244053 -6.5317726 -1.3319654 5
12.014706 -6.042603 -1.1712128 18
6.0424023 -4.5264721 -1.4580207 4
7.6932921 -3.8660295 -1.3597401 14
4.5902534 -3.4406352 -1.5266849 5
5.699964 -2.8570073 -1.4616565 5
38.277489 -22.657694 11.065113 4
68.261147 -59.061615 12.681104 9
36.831997 -21.836864 7.5362434 22
36.666275 -31.699871 3.3783977 30
50.059975 -29.713997 6.1149154 31
23.218784 -20.064754 0 25
12.606101 -10.902715 -1.1601143 4
7.5618339 -6.5470634 -1.3972994 5
10.413959 -6.1931109 -1.2655441 19
5.365859 -4.6556158 -1.5039166 5
6.9648509 -4.1411066 -1.4226139 6
5.1789737 -3.0774622 -1.4922183 19
37.382866 -18.700607 8.1106787 28
36.761135 -27.4888 4.0128684 30
30.777014 -15.443965 4.2176824 37
15.547679 -11.633348 -1.0192267 5
27.199085 -13.67885 -0.53081924 13
8.7244053 -6.5317726 -1.3319654 5
12.014706 -6.042603 -1.1712128 18
6.0424023 -4.5264721 -1.4580207 4
7.6932921 -3.8660295 -1.3597401 14
4.5902534 -3.4406352 -1.5266849 5
5.699964 -2.8570073 -1.4616565 5
36.582241 -21.861742 7.5006809 27
10.392277 -6.229425 -1.2655441 18
6.9588013 -4.1704535 -1.4243501 6
5.1681995 -3.0955215 -1.4922183 19
37.350231 -18.847569 8.1178284 38
36.362591 -27.389187 3.979749 27
30.716276 -15.547943 4.2167697 28
24.527292 -18.480598 0.53543979 4
15.524917 -11.701073 -1.020408 4
27.133335 -13.764664 -0.53047013 9
8.7253227 -6.5801191 -1.3356162 4
12.002425 -6.0890083 -1.1720825 18
6.0363593 -4.5549302 -1.4604017 5
7.7061849 -3.9062428 -1.3644383 15
4.5782151 -3.4566376 -1.5266849 5
5.6943064 -2.879082 -1.4627795 5
36.582241 -21.861742 7.5006809 27
50.065929 -29.966223 6.1290264 1
10.392277 -6.229425 -1.2655441 18
6.9588013 -4.1704535 -1.4243501 6
5.1681995 -3.0955215 -1.4922183 19
37.350231 -18.847569 8.1178284 38
36.357807 -27.395533 3.979749 27
30.716276 -15.547943 4.2167697 28
26.43825 -19.927845 0.57728195 18
15.522875 -11.703781 -1.020408 4
27.130936 -13.769395 -0.53047013 9
8.7241735 -6.5816417 -1.3356162 4
12.001361 -6.0911036 -1.1720825 18
6.0363593 -4.5549302 -1.4604017 5
7.705503 -3.9075878 -1.3644383 15
4.5776124 -3.4574363 -1.5266849 5
5.6938033 -2.8800757 -1.4627795 5
36.520847 -22.007113 7.5045843 25
10.367247 -6.2661867 -1.2652835 19
6.9371471 -4.1921129 -1.4230479 6
5.1651273 -3.1194565 -1.4946358 18
37.3312 -19.009943 8.1287899 2
36.134178 -27.43523 3.9662399 16
24.398428 -18.530794 0.5341745 16
15.479875 -11.760596 -1.020408 3
27.118113 -13.888107 -0.53121191 9
8.6980181 -6.6120715 -1.3353121 5
11.97674 -6.1339149 -1.1718651 16
6.0254836 -4.581481 -1.46183 6
7.6119771 -3.8953521 -1.3503437 23
4.5745153 -3.4815066 -1.5299181 5
5.6875505 -2.9031372 -1.4639026 5
36.520847 -22.007113 7.5045843 25
49.498089 -29.873327 6.0728426 1
63.556419 -38.387466 2.5916367 1
10.367243 -6.266192 -1.2652835 19
6.9364152 -4.1933231 -1.4230479 6
5.1645827 -3.120358 -1.4946358 18
37.327881 -19.016459 8.1287899 2
36.134178 -27.43523 3.9662399 16
24.398428 -18.530794 0.5341745 16
15.479875 -11.760596 -1.020408 3
27.115688 -13.89284 -0.53121191 9
8.6980181 -6.6120715 -1.3353121 5
11.975668 -6.1360054 -1.1718651 16
6.024684 -4.5825329 -1.46183 6
7.6112976 -3.8966806 -1.3503437 23
4.5739079 -3.4823048 -1.5299181 5
5.6875505 -2.9031372 -1.4639026 5
36.34911 -22.076952 7.4850683 28
10.343184 -6.3010488 -1.2650231 19
6.9259415 -4.2200713 -1.4239161 6
5.1495147 -3.1358449 -1.493427 19
38.505028 -29.447914 4.2379479 13
24.238304 -18.542942 0.53208023 9
15.47243 -11.840357 -1.0226399 4
27.107002 -14.008058 -0.53199726 9
8.688674 -6.6529551 -1.3374418 5
11.956388 -6.1789136 -1.1720825 13
6.0105991 -4.6050282 -1.4623063 6
7.6634851 -3.9571764 -1.3620893 14
4.5559764 -3.493839 -1.5279782 5
5.6860485 -2.9274268 -1.4661486 5
36.34911 -22.076952 7.4850683 28
48.975044 -29.791393 6.0213623 1
63.279045 -38.522041 2.5857909 25
10.343187 -6.301044 -1.2650231 19
6.9266777 -4.2188621 -1.4239161 6
5.1500621 -3.1349461 -1.493427 19
42.892788 -22.03014 9.3574495 1
38.505028 -29.447914 4.2379479 13
25.723236 -19.679077 0.56471616 1
15.47243 -11.840357 -1.0226399 4
27.109447 -14.003325 -0.53199726 9
8.688674 -6.6529551 -1.3374418 5
11.957467 -6.1768265 -1.1720825 13
6.0114031 -4.6039791 -1.4623063 6
7.664176 -3.9558389 -1.3620893 14
4.5565867 -3.4930439 -1.5279782 5
5.6860485 -2.9274268 -1.4661486 5
36.330303 -22.230776 7.4963441 26
74.437004 -45.653191 3.0481219 1
10.322235 -6.3353086 -1.2650231 20
6.9189453 -4.2456698 -1.4252185 6
5.1396375 -3.1520069 -1.493427 19
36.688519 -28.251904 4.0481663 27
38.508484 -20.00016 5.31599 1
25.598431 -19.718506 0.56340724 1
15.488452 -11.934271 -1.0263156 4
27.111637 -14.118539 -0.53295714 6
8.6763897 -6.6893082 -1.3389629 5
11.936919 -6.216445 -1.1720825 8
6.0135908 -4.6373806 -1.4665917 5
7.6225333 -3.9664309 -1.3569995 9
4.5545349 -3.5155156 -1.5312114 5
5.6763096 -2.9462662 -1.4661486 4
36.330303 -22.230776 7.4963441 26
48.915131 -29.965883 6.0255432 1
74.437004 -45.653191 3.0481219 1
10.322235 -6.3353086 -1.2650231 20
6.9189453 -4.2456698 -1.4252185 6
5.1396375 -3.1520069 -1.493427 19
39.737793 -20.576899 8.6835451 1
36.693447 -28.245501 4.0481663 27
38.508484 -20.00016 5.31599 1
25.601873 -19.714039 0.56340724 1
15.490535 -11.931568 -1.0263156 4
27.114098 -14.113811 -0.53295714 6
8.677556 -6.6877933 -1.3389629 5
11.938004 -6.2143617 -1.1720825 8
6.0135908 -4.6373806 -1.4665917 5
7.6232252 -3.9651003 -1.3569995 9
4.5551476 -3.5147204 -1.5312114 5
5.6768241 -2.9452753 -1.4661486 4
36.313259 -22.394934 7.5089211 20
10.314861 -6.3804545 -1.2668463 17
6.9082718 -4.2723846 -1.4260867 6
5.1389241 -3.1763022 -1.496449 18
36.521805 -28.316948 4.0401044 41
37.411861 -19.596863 5.1739101 2
25.329468 -19.645487 0.55891323 29
15.452735 -11.988626 -1.0265781 4
27.009333 -14.179333 -0.53186637 9
8.6639595 -6.7256532 -1.3404841 5
11.927266 -6.2617798 -1.1731699 17
5.995429 -4.6568375 -1.4661156 5
7.6508937 -4.0134573 -1.3644383 13
4.5447578 -3.5320821 -1.531858 5
5.672987 -2.9684572 -1.4678333 4
36.313259 -22.394934 7.5089211 20
48.771126 -30.124062 6.0213623 1
74.21981 -45.877277 3.0457661 1
10.314858 -6.3804598 -1.2668463 17
6.907526 -4.2735901 -1.4260867 6
5.1383696 -3.1771991 -1.496449 18
36.516865 -28.32332 4.0401044 41
37.40844 -19.603394 5.1739101 2
25.32604 -19.649908 0.55891323 29
15.450642 -11.991324 -1.0265781 4
27.004385 -14.188755 -0.53186637 9
8.6627846 -6.7271647 -1.3404841 5
11.925078 -6.2659426 -1.1731699 17
5.994616 -4.6578841 -1.4661156 5
7.6494927 -4.0161276 -1.3644383 13
4.5435247 -3.5336683 -1.531858 5
5.6724687 -2.9694474 -1.4678333 4
36.310383 -22.577274 7.5254011 18
10.287184 -6.4155927 -1.2663254 18
6.9001737 -4.3040895 -1.4278232 6
5.1308079 -3.198576 -1.4976577 18
36.36179 -28.417095 4.0344391 36
38.099777 -20.143908 5.2797856 1
25.409414 -19.864231 0.56236017 1
15.449851 -12.08171 -1.0294662 4
26.987541 -14.306363 -0.53256446 6
8.636116 -6.7573414 -1.3401799 5
11.899834 -6.3084426 -1.1729524 19
5.9890962 -4.6889038 -1.4689726 6
7.6347213 -4.0441375 -1.3644383 10
4.532443 -3.5517876 -1.5325046 5
5.6572371 -2.9879456 -1.4667102 4
38.056313 -23.662752 7.8875332 1
48.717377 -30.3381 6.0284181 1
74.1381 -46.203186 3.0493433 1
23.938063 -14.92573 -0.9888255 1
10.287184 -6.4155927 -1.2663254 18
6.9001737 -4.3040895 -1.4278232 6
5.1308079 -3.198576 -1.4976577 18
39.746552 -20.952309 8.7188139 18
36.36179 -28.417095 4.0344391 36
38.099777 -20.143908 5.2797856 1
25.409414 -19.864231 0.56236017 1
15.449851 -12.08171 -1.0294662 4
26.987541 -14.306363 -0.53256446 6
8.636116 -6.7573414 -1.3401799 5
11.899834 -6.3084426 -1.1729524 19
5.9890962 -4.6889038 -1.4689726 6
7.6347213 -4.0441375 -1.3644383 10
4.532443 -3.5517876 -1.5325046 5
5.6572371 -2.9879456 -1.4667102 4
38.207161 -23.941862 7.9361062 20
10.275252 -6.4580746 -1.2676276 17
6.8809376 -4.3255291 -1.426955 6
5.1175566 -3.2151766 -1.4970533 18
36.099957 -28.415991 4.0163546 29
37.37888 -19.930105 5.1894259 3
15.413467 -12.140202 -1.0298599 4
26.910982 -14.386342 -0.53204089 6
8.6222191 -6.7951269 -1.3417011 5
11.888723 -6.3558102 -1.1740396 18
5.9746189 -4.7113013 -1.4694487 6
7.6292729 -4.0754123 -1.3660045 12
4.5219126 -3.5690835 -1.5331511 5
5.6575279 -3.0133934 -1.4695178 4
38.207161 -23.941862 7.9361062 20
48.874424 -30.673168 6.0610828 1
73.906548 -46.417835 3.046464 1
23.771574 -14.937423 -0.98409045 1
10.275256 -6.4580698 -1.2676276 17
6.8816924 -4.3243279 -1.426955 6
5.1181178 -3.2142832 -1.4970533 18
39.633503 -21.06097 8.709281 1
36.099957 -28.415991 4.0163546 29
39.870136 -21.249144 5.5350428 13
15.413467 -12.140202 -1.0298599 4
26.913492 -14.381645 -0.53204089 6
8.6222191 -6.7951269 -1.3417011 5
11.889832 -6.3537345 -1.1740396 18
5.9754415 -4.7102585 -1.4694487 6
7.6299844 -4.0740809 -1.3660045 12
4.5225353 -3.5682945 -1.5331511 5
5.6575279 -3.0133934 -1.4695178 4
38.208752 -24.119682 7.9530201 22
10.257985 -6.4947686 -1.2681485 17
6.8818784 -4.356339 -1.4299937 6
5.1135821 -3.235127 -1.4988666 18
35.909885 -28.459743 4.0056777 35
37.375107 -20.07914 5.1976404 6
15.4142 -12.223826 -1.0326167 4
26.876657 -14.47674 -0.53225905 9
8.6054688 -6.8283095 -1.3426138 5
11.875278 -6.3966694 -1.174692 19
5.9636331 -4.7331004 -1.470401 5
7.6077318 -4.0946832 -1.3644383 9
4.5144587 -3.5862772 -1.5344445 5
5.6560922 -3.0367413 -1.471764 4
38.208752 -24.119682 7.9530201 22
48.929146 -30.922186 6.0798979 1
74.38353 -47.062073 3.0725517 1
23.749355 -15.033542 -0.98523045 1
10.257985 -6.4947686 -1.2681485 17
6.8818784 -4.356339 -1.4299937 6
5.1135821 -3.235127 -1.4988666 18
39.723545 -21.278017 8.7445498 1
35.914852 -28.453474 4.0056777 35
37.375107 -20.07914 5.1976404 6
15.416334 -12.221137 -1.0326167 4
26.879181 -14.472054 -0.53225905 9
8.6066599 -6.8268075 -1.3426138 5
11.876393 -6.3945966 -1.174692 19
5.9636331 -4.7331004 -1.470401 5
7.6084461 -4.0933557 -1.3644383 9
4.5150843 -3.5854895 -1.5344445 5
5.6566224 -3.035754 -1.471764 4
35.909779 -22.844263 7.4907064 16
10.241541 -6.5345469 -1.2689298 16
6.8707829 -4.3829823 -1.4308621 6
5.1104426 -3.2581706 -1.5012841 18
37.329128 -29.797342 11.001442 13
37.501652 -29.924366 7.5762024 3
36.662571 -19.803801 8.0854197 31
36.054752 -28.769741 4.0324783 20
37.19569 -20.150393 5.1824288 3
23.823952 -19.016327 0.5314694 18
15.424302 -12.31538 -1.0360299 4
26.753803 -14.525252 -0.53077555 9
8.5885944 -6.8614564 -1.3435266 5
11.858377 -6.4383888 -1.1751269 16
5.9547424 -4.7600203 -1.4723058 6
7.6093082 -4.1281233 -1.3671789 9
4.5119681 -3.6087728 -1.5376775 5
5.6438479 -3.0543227 -1.4712024 4
38.126404 -24.254232 7.9534545 1
48.918236 -31.166773 6.0927029 1
74.452637 -47.47052 3.0822361 1
23.568239 -15.034396 -0.97988164 1
10.241541 -6.5345469 -1.2689298 16
6.8707829 -4.3829823 -1.4308621 6
5.1104426 -3.2581706 -1.5012841 18
41.598965 -22.469559 9.1749134 1
36.049728 -28.776035 4.0324783 20
39.152905 -21.210419 5.4553323 18
37.442471 -29.898546 0.83575207 1
15.422152 -12.318073 -1.0360299 4
26.751272 -14.529917 -0.53077555 9
8.5873966 -6.862956 -1.3435266 5
11.857254 -6.4404583 -1.1751269 16
5.9547424 -4.7600203 -1.4723058 6
7.6085882 -4.1294513 -1.3671789 9
4.5113387 -3.6095603 -1.5376775 5
5.6433144 -3.0553079 -1.4712024 4
36.171936 -23.197676 7.5631328 23
10.223796 -6.5760746 -1.2697113 13
6.8546724 -4.4081349 -1.4308621 7
5.0943837 -3.2742574 -1.5000753 18
37.267582 -29.983215 11.017165 2
37.467293 -30.133142 7.5925918 6
36.665173 -19.979134 8.1021004 31
36.419476 -29.290386 4.0858612 13
38.79834 -21.202681 5.4166937 23
23.797499 -19.145271 0.53251654 20
15.341893 -12.346338 -1.033667 4
26.737299 -14.64948 -0.53156096 9
8.5602522 -6.8928266 -1.3432223 5
11.831385 -6.4826779 -1.1749095 12
5.9353452 -4.7802734 -1.4718295 6
7.5847359 -4.1525722 -1.365613 10
4.4924397 -3.6215227 -1.5357378 5
5.6406341 -3.0806355 -1.4734485 4
36.171936 -23.197676 7.5631328 23
74.198288 -47.69175 3.0789206 1
23.496164 -15.109867 -0.97918016 1
10.223792 -6.5760794 -1.2697113 13
6.8539023 -4.4093323 -1.4308621 7
5.0938125 -3.2751465 -1.5000753 18
36.541008 -19.919765 8.0754118 1
36.419476 -29.290386 4.0858612 13
38.79464 -21.209454 5.4166937 23
37.340424 -30.041847 0.83592659 1
15.341893 -12.346338 -1.033667 4
26.734741 -14.654146 -0.53156096 9
8.5602522 -6.8928266 -1.3432223 5
11.830253 -6.4847426 -1.1749095 12
5.9345102 -4.7813091 -1.4718295 6
7.5840116 -4.1538963 -1.365613 10
4.4918079 -3.6223068 -1.5357378 5
5.6406341 -3.0806355 -1.4734485 4
36.105213 -23.333149 7.5661683 18
0.3594946 -0.23535199 -0.013854254 7
10.209122 -6.6171346 -1.270753 9
6.8508668 -4.4412622 -1.4334668 7
5.0843849 -3.2942257 -1.5006797 17
37.389816 -30.297171 11.084548 3
36.417839 -29.499002 7.4006019 9
36.656223 -20.148844 8.1163988 48
36.522144 -29.583506 4.1089578 77
37.683739 -20.773434 5.2715707 2
23.792669 -19.278582 0.53391272 20
15.343308 -12.435976 -1.0366863 4
26.657171 -14.732875 -0.53103739 6
8.5477009 -6.932045 -1.3450477 5
11.809724 -6.5272026 -1.1751269 6
5.9215951 -4.805089 -1.4727819 5
7.5694652 -4.1803436 -1.365613 9
4.48101 -3.639487 -1.5363845 5
5.6319809 -3.1014802 -1.4740101 6
36.105213 -23.333149 7.5661683 18
73.838425 -47.825508 3.0708938 1
23.376179 -15.148317 -0.97637421 1
10.209126 -6.6171298 -1.270753 9
6.8516421 -4.4400663 -1.4334668 7
5.08496 -3.2933381 -1.5006797 17
36.65974 -20.142447 8.1163988 48
36.527306 -29.577131 4.1089578 77
39.956436 -22.01687 5.5891976 13
23.796034 -19.274427 0.53391272 20
40.541599 -22.385347 2.4252481 1
15.34548 -12.433298 -1.0366863 4
26.662312 -14.723575 -0.53103739 6
8.5489111 -6.9305534 -1.3450477 5
11.812001 -6.5230799 -1.1751269 6
5.9224334 -4.8040552 -1.4727819 5
7.5709243 -4.177701 -1.365613 9
4.4822803 -3.6379228 -1.5363845 5
5.6325221 -3.1004968 -1.4740101 6
36.095737 -23.497074 7.5804801 23
0.35661986 -0.23517731 -0.013766569 6
10.191291 -6.653666 -1.271274 15
6.8410044 -4.4654531 -1.4343351 6
5.0821395 -3.3154812 -1.5030972 17
37.218933 -30.352898 11.062087 3
36.418766 -29.689728 7.419723 13
36.61636 -20.276978 8.1216412 46
36.201252 -29.5124 4.0832467 6
23.704866 -19.331116 0.53330189 22
15.321573 -12.498321 -1.0378678 4
26.611153 -14.810692 -0.53099376 9
8.5239601 -6.9572959 -1.3447436 5
11.796837 -6.565846 -1.1757793 13
5.9178739 -4.8329854 -1.4756389 5
7.5613456 -4.2051821 -1.3663958 9
4.4683228 -3.6512377 -1.5357378 5
5.626471 -3.1215184 -1.4751331 6
36.095737 -23.497074 7.5804801 23
74.07283 -48.326756 3.0872967 1
23.321632 -15.22302 -0.97619879 1
10.191291 -6.653666 -1.271274 15
6.8410044 -4.4654531 -1.4343351 6
5.0821395 -3.3154812 -1.5030972 17
36.61636 -20.276978 8.1216412 46
76.171227 -62.099499 8.5950813 22
37.449074 -20.797766 5.2478399 1
23.704866 -19.331116 0.53330189 22
40.128986 -22.331526 2.404968 1
15.321573 -12.498321 -1.0378678 4
26.611153 -14.810692 -0.53099376 9
8.5239601 -6.9572959 -1.3447436 5
11.796837 -6.565846 -1.1757793 13
5.9178739 -4.8329854 -1.4756389 5
7.5613456 -4.2051821 -1.3663958 9
4.4683228 -3.6512377 -1.5357378 5
5.626471 -3.1215184 -1.4751331 6
37.800518 -24.794998 7.956924 18
10.178391 -6.6960306 -1.2725763 14
6.825376 -4.4893055 -1.4343351 6
5.0685081 -3.3318694 -1.5024928 16
36.379795 -29.869951 7.4329906 2
36.451069 -20.352037 8.1006708 25
35.793903 -29.388874 4.04882 18
37.395737 -20.939272 5.2505784 37
23.625654 -19.404224 0.53304011 4
15.273994 -12.548556 -1.0376053 4
26.657394 -14.958521 -0.53295714 9
8.5111217 -6.9964628 -1.3465689 5
11.776017 -6.608202 -1.1759968 14
5.8971767 -4.8504939 -1.4746865 5
7.5530844 -4.2351704 -1.3675705 8
4.4592781 -3.669883 -1.5370309 5
5.615541 -3.1411395 -1.4751331 5
37.800518 -24.794998 7.956924 18
74.231461 -48.800488 3.1009946 1
23.224514 -15.275506 -0.97435743 1
10.178391 -6.6960306 -1.2725763 14
6.825376 -4.4893055 -1.4343351 6
5.0685081 -3.3318694 -1.5024928 16
36.451069 -20.352037 8.1006708 25
75.946953 -62.38142 8.5955172 9
37.395737 -20.939272 5.2505784 37
