# .PCD v0.7 - Point Cloud Data file format
VERSION 0.7
FIELDS x y z intensity
SIZE 4 4 4 4
TYPE F F F F
COUNT 1 1 1 1
WIDTH 1562
HEIGHT 1
VIEWPOINT 0 0 0 1 0 0 0
POINTS 1562
DATA ascii
5.6351619 16.006838 2.6761577 36
4.015358 24.845259 4.8808007 24
6.6437283 18.8708 1.7472547 23
4.202076 25.80175 3.2009118 21
15.549747 44.136234 0.81620532 50
4.2527251 25.970219 1.3773514 26
8.9956856 25.521109 -1.4210624 1
4.5233898 27.594645 -0.48749325 49
5.8505993 16.581652 -2.1515896 9
4.5062017 27.519728 -2.4317994 8
3.3100245 9.3781414 -1.9227588 16
2.2164273 13.566016 -2.1740963 15
2.230372 6.3103318 -1.7827491 13
1.3434415 8.2749176 -1.9243553 13
6.3703623 14.654381 3.3861775 27
3.6744061 15.632287 3.9891419 22
6.6732774 15.379954 2.3513293 24
3.4401879 14.589577 2.6342375 34
nan nan nan 0
3.7953999 16.059315 1.7307299 27
nan nan nan 0
nan nan nan 0
10.207813 23.520441 -1.786009 7
5.6604424 23.880648 -0.86010367 7
5.7540064 13.237443 -2.0185528 14
nan nan nan 0
3.4688928 7.9580503 -1.8394496 14
2.7117288 11.444641 -2.0677171 14
2.4530237 5.6040492 -1.7430346 14
1.7361459 7.3353996 -1.8693525 13
4.9420314 14.038624 3.4225085 27
4.2774272 26.765217 7.2433076 8
5.6323681 16.007822 2.6761577 36
4.015358 24.845259 4.8808007 24
6.6404343 18.871958 1.7472547 23
4.202076 25.80175 3.2009118 21
15.542045 44.13895 0.81620532 50
4.2527251 25.970219 1.3773514 26
8.99123 25.522676 -1.4210624 1
4.518579 27.595432 -0.48749325 49
5.8477058 16.58267 -2.1515896 9
5.278132 32.274151 -2.8523576 13
3.3100245 9.3781414 -1.9227588 16
2.2140596 13.566402 -2.1740963 15
2.2292707 6.3107214 -1.7827491 13
1.3419973 8.2751513 -1.9243553 13
6.4722328 14.740637 3.4116256 26
3.7491436 15.691862 4.007865 20
6.8976388 15.738552 2.4101298 26
3.4930651 14.574476 2.6338038 26
nan nan nan 0
3.8641021 16.086395 1.7351725 22
nan nan nan 0
12.838821 53.345772 1.9148481 13
10.303967 23.505707 -1.7877485 3
6.668642 27.68302 -0.99812007 3
5.7935219 13.195864 -2.015429 13
nan nan nan 0
3.4980369 7.945282 -1.8394496 14
2.7513535 11.425052 -2.0659809 14
2.4657607 5.5774412 -1.7375252 14
1.7630199 7.3289876 -1.8693525 13
4.9950876 14.025006 3.4236317 27
4.3813391 26.78511 7.2530007 8
5.6951427 15.998701 2.6781085 39
4.0987935 24.784372 4.8717456 24
6.6594319 18.706724 1.7341814 25
4.2986526 25.798412 3.2024329 21
15.678549 44.011047 0.8148964 40
4.3392296 25.90275 1.3746039 25
8.9916649 25.228525 -1.4064907 1
4.6110272 27.526913 -0.486577 31
5.8925977 16.516722 -2.1458092 9
4.5915599 27.439964 -2.4261458 47
3.3394206 9.3520794 -1.919902 16
2.2601154 13.536276 -2.1705728 14
2.2475059 6.2888651 -1.7788693 12
1.3731132 8.2749844 -1.9254783 14
6.4722328 14.740637 3.4116256 26
3.7491436 15.691862 4.007865 20
6.8976388 15.738552 2.4101298 26
3.4930651 14.574476 2.6338038 26
nan nan nan 0
3.8669097 16.08572 1.7351725 22
nan nan nan 0
12.838821 53.345772 1.9148481 13
10.308069 23.503908 -1.7877485 3
6.668642 27.68302 -0.99812007 3
5.7958245 13.194853 -2.015429 13
nan nan nan 0
3.4994237 7.9446716 -1.8394496 14
2.7533474 11.42457 -2.0659809 14
2.4667339 5.5770111 -1.7375252 14
1.7642989 7.3286791 -1.8693525 13
4.9975352 14.024134 3.4236317 27
4.386014 26.784346 7.2530007 8
5.6979351 15.997708 2.6781085 39
4.1031194 24.783657 4.8717456 24
6.6626968 18.705561 1.7341814 25
4.3031554 25.797663 3.2024329 21
15.686231 44.008308 0.8148964 40
4.3437505 25.901991 1.3746039 25
8.996067 25.226955 -1.4064907 1
4.6206298 27.525303 -0.486577 31
5.8954802 16.515694 -2.1458092 9
4.6011376 27.438358 -2.4261458 47
3.3410528 9.3514967 -1.919902 16
2.2648404 13.535485 -2.1705728 14
2.249701 6.2880802 -1.7788693 12
1.3745575 8.274745 -1.9254783 14
6.5732255 14.829727 3.4375932 26
3.8793573 15.989888 4.0875874 25
7.0126672 15.850204 2.4310057 26
3.5561371 14.612433 2.6429112 23
nan nan nan 0
3.9118397 16.026232 1.7302073 17
21.143274 47.835384 0 25
13.047489 53.39286 1.9181634 18
10.426412 23.549875 -1.794011 3
6.767014 27.666857 -0.99838322 3
5.828793 13.145123 -2.0109172 13
nan nan nan 0
3.5231564 7.9234724 -1.8373688 15
2.7879469 11.393366 -2.0620737 13
2.4852052 5.5661726 -1.7368366 13
1.786418 7.3083367 -1.8657261 14
5.1100612 14.183074 3.4668694 23
4.4838624 26.795074 7.2601089 6
nan nan nan 0
4.2096391 24.887754 4.8950987 22
6.705163 18.618927 1.7282984 22
4.3969274 25.804502 3.2051711 17
15.782122 43.793385 0.81192952 28
4.4682455 26.085997 1.3852018 22
9.0019217 24.967592 -1.393757 1
4.7171049 27.511473 -0.48662063 26
5.9446688 16.471674 -2.1427667 8
4.6800852 27.323936 -2.4174476 34
3.3720067 9.3351612 -1.9189496 16
2.3104136 13.517763 -2.1690066 15
2.2708151 6.2779183 -1.7782227 13
1.4014019 8.2578859 -1.9226706 14
6.5732255 14.829727 3.4375932 26
3.8793573 15.989888 4.0875874 25
7.0126672 15.850204 2.4310057 26
3.5561371 14.612433 2.6429112 23
nan nan nan 0
3.9118397 16.026232 1.7302073 17
21.143274 47.835384 0 25
13.047489 53.39286 1.9181634 18
10.422301 23.551695 -1.794011 3
6.767014 27.666857 -0.99838322 3
5.828793 13.145123 -2.0109172 13
nan nan nan 0
3.5231564 7.9234724 -1.8373688 15
2.7859585 11.393852 -2.0620737 13
2.4852052 5.5661726 -1.7368366 13
1.7851423 7.3086481 -1.8657261 14
5.1100612 14.183074 3.4668694 23
4.4791856 26.795855 7.2601089 6
nan nan nan 0
4.2052956 24.888489 4.8950987 22
6.705163 18.618927 1.7282984 22
4.3924236 25.805269 3.2051711 17
15.782122 43.793385 0.81192952 28
4.4636927 26.086775 1.3852018 22
9.0019217 24.967592 -1.393757 1
4.7123036 27.512295 -0.48662063 26
5.9446688 16.471674 -2.1427667 8
4.6753163 27.324753 -2.4174476 34
3.3703775 9.3357496 -1.9189496 16
2.3080542 13.518166 -2.1690066 15
2.2697191 6.2783146 -1.7782227 13
1.4014019 8.2578859 -1.9226706 14
6.7318797 15.045512 3.4931643 22
3.9252901 15.936202 4.0773201 25
7.0669432 15.82337 2.4306581 9
3.620697 14.654908 2.6528862 28
nan nan nan 0
3.9659646 16.005238 1.7294234 7
21.29586 47.729328 0 4
13.15379 53.024464 1.9065593 9
10.529888 23.572094 -1.7983599 1
6.8749838 27.68914 -1.0000491 2
5.867558 13.10888 -2.0084877 13
nan nan nan 0
3.5447783 7.8977437 -1.8342475 17
2.8227499 11.37211 -2.0599031 14
2.5006638 5.5487027 -1.7340819 14
1.8100604 7.3000178 -1.8651217 14
5.1837239 14.231528 3.4831536 27
nan nan nan 0
nan nan nan 0
4.2929807 24.878494 4.8960514 23
6.8101678 18.705395 1.7385392 23
nan nan nan 0
15.954574 43.792042 0.81293303 22
4.571465 26.16695 1.3903046 2
9.0556707 24.844542 -1.3886372 1
4.8246574 27.589245 -0.48827863 12
5.9732051 16.371567 -2.1324224 8
4.7736659 27.325439 -2.4189696 32
3.3995776 9.3147068 -1.9170449 16
2.3505716 13.483267 -2.1647 15
2.2924502 6.2726216 -1.7788693 14
1.4281455 8.240941 -1.919863 13
6.7318797 15.045512 3.4931643 22
3.9252901 15.936202 4.0773201 25
7.0669432 15.82337 2.4306581 9
3.620697 14.654908 2.6528862 28
nan nan nan 0
5.1763091 20.892359 2.2585988 1
21.29586 47.729328 0 4
nan nan nan 0
10.529888 23.572094 -1.7983599 1
6.8749838 27.68914 -1.0000491 2
5.867558 13.10888 -2.0084877 13
nan nan nan 0
3.5447783 7.8977437 -1.8342475 17
2.8227499 11.37211 -2.0599031 14
2.5006638 5.5487027 -1.7340819 14
1.8100604 7.3000178 -1.8651217 14
5.1837239 14.231528 3.4831536 27
nan nan nan 0
nan nan nan 0
4.2929807 24.878494 4.8960514 23
6.8101678 18.705395 1.7385392 23
nan nan nan 0
15.954574 43.792042 0.81293303 22
4.9290166 28.21563 1.4992943 12
9.0556707 24.844542 -1.3886372 1
4.8246574 27.589245 -0.48827863 12
5.9732051 16.371567 -2.1324224 8
4.7736659 27.325439 -2.4189696 32
3.3995776 9.3147068 -1.9170449 16
2.3505716 13.483267 -2.1647 15
2.2924502 6.2726216 -1.7788693 14
1.4281455 8.240941 -1.919863 13
6.8770123 15.226938 3.5409448 22
3.9497232 15.797663 4.04531 24
nan nan nan 0
3.6778162 14.666064 2.6572232 24
nan nan nan 0
4.2466798 16.885885 1.8263736 7
21.578363 47.912273 0 54
13.307083 52.852238 1.9020225 9
nan nan nan 0
nan nan nan 0
5.9010406 13.061247 -2.004323 14
nan nan nan 0
3.5703049 7.880868 -1.8332071 16
2.8576205 11.343087 -2.0564301 14
2.5230069 5.5465002 -1.7361479 13
1.8355311 7.2936549 -1.8651217 14
5.2072682 14.142483 3.4657462 27
nan nan nan 0
5.9060946 16.048393 2.6968393 5
2.9677508 16.838867 3.3137591 8
6.896069 18.7376 1.7437686 28
4.8275223 27.213104 3.3843687 27
16.26803 44.172363 0.82104838 22
5.0217862 28.166302 1.4975934 1
9.0974483 24.690968 -1.3818108 1
nan nan nan 0
6.0285983 16.345961 -2.131814 8
4.8746986 27.340485 -2.4217966 22
3.4329212 9.3050852 -1.9175211 15
2.3946006 13.457962 -2.1619594 17
2.3109822 6.2555208 -1.7762828 14
1.4569031 8.2359056 -1.919863 14
6.8770123 15.226938 3.5409448 22
3.9497232 15.797663 4.04531 24
nan nan nan 0
3.6778162 14.666064 2.6572232 24
nan nan nan 0
5.0013018 19.887945 2.1517184 1
22.795118 50.613369 0 1
nan nan nan 0
nan nan nan 0
nan nan nan 0
5.9010406 13.061247 -2.004323 14
nan nan nan 0
3.5703049 7.880868 -1.8332071 16
2.8576205 11.343087 -2.0564301 14
2.5230069 5.5465002 -1.7361479 13
1.8355311 7.2936549 -1.8651217 14
5.2072682 14.142483 3.4657462 27
nan nan nan 0
5.9060946 16.048393 2.6968393 5
4.391705 24.931034 4.9093962 1
6.896069 18.7376 1.7437686 28
4.8275223 27.213104 3.3843687 27
nan nan nan 0
5.0217862 28.166302 1.4975934 1
9.0974483 24.690968 -1.3818108 1
nan nan nan 0
6.0285983 16.345961 -2.131814 8
4.8746986 27.340485 -2.4217966 22
3.4329212 9.3050852 -1.9175211 15
2.3946006 13.457962 -2.1619594 17
2.3109822 6.2555208 -1.7762828 14
1.4569031 8.2359056 -1.919863 14
6.9487739 15.250776 3.551851 23
3.9603741 15.619865 4.0030332 24
nan nan nan 0
3.7385597 14.70151 2.6658969 27
nan nan nan 0
4.306951 16.888575 1.8282028 6
19.422253 42.746796 0 6
13.409973 52.524582 1.8918145 34
nan nan nan 0
5.2940979 20.716005 -0.74918193 10
5.9412379 13.034849 -2.0032816 13
nan nan nan 0
3.5923488 7.8600917 -1.8311265 16
2.8927839 11.324006 -2.0546935 14
2.5383744 5.5315533 -1.7340819 13
1.8555132 7.2710733 -1.8608911 14
5.2371464 14.079473 3.4545159 26
4.5944085 25.844734 7.0145512 1
6.8467121 18.414953 3.0991604 3
3.0149081 16.780621 3.3042274 14
6.9885507 18.796329 1.7513946 21
4.9283247 27.255552 3.3916705 27
16.556511 44.500034 0.82816029 2
nan nan nan 0
9.1374674 24.548363 -1.3755096 1
nan nan nan 0
6.0706382 16.293329 -2.1275547 8
4.9844661 27.429541 -2.4311471 3
3.4577568 9.2775536 -1.914188 15
2.4378963 13.442658 -2.160785 14
2.3334033 6.252347 -1.7775761 13
1.4820513 8.2190399 -1.9170554 13
6.9487739 15.250776 3.551851 23
3.9603741 15.619865 4.0030332 24
nan nan nan 0
3.7385597 14.70151 2.6658969 27
nan nan nan 0
5.0717354 19.903458 2.1551156 1
23.055923 50.742336 0 1
13.409973 52.524582 1.8918145 34
nan nan nan 0
5.2940979 20.716005 -0.74918193 10
5.9389629 13.035886 -2.0032816 13
nan nan nan 0
3.5909772 7.8607178 -1.8311265 16
2.8927839 11.324006 -2.0546935 14
2.5374088 5.5319963 -1.7340819 13
1.8555132 7.2710733 -1.8608911 14
5.2346883 14.080386 3.4545159 26
4.5944085 25.844734 7.0145512 1
6.8434982 18.416147 3.0991604 3
4.5016551 25.068516 4.9394217 3
6.9852705 18.797546 1.7513946 21
4.9283247 27.255552 3.3916705 27
16.548742 44.502922 0.82816029 2
nan nan nan 0
9.1331825 24.549955 -1.3755096 1
nan nan nan 0
6.0677938 16.294388 -2.1275547 8
4.9796786 27.43041 -2.4311471 3
3.4577568 9.2775536 -1.914188 15
2.4355502 13.443085 -2.160785 14
2.3323121 6.2527547 -1.7775761 13
1.4806167 8.2192984 -1.9170554 13
6.9494004 15.105252 3.5238061 22
3.9099894 15.18705 3.8955288 34
nan nan nan 0
3.7794986 14.637646 2.6567893 27
nan nan nan 0
4.3708577 16.892698 1.8302934 8
19.49851 42.500362 0 3
13.599261 52.462986 1.8913782 29
nan nan nan 0
5.3687358 20.691628 -0.74900657 39
5.9763489 12.991543 -1.9998111 15
5.3391209 20.577419 -2.223232 10
3.6177132 7.8430638 -1.830086 14
2.930563 11.299028 -2.052089 13
2.5586789 5.524838 -1.7347704 12
1.8827585 7.266572 -1.8614955 14
5.2288065 13.908332 3.4168935 30
nan nan nan 0
5.6989436 15.166448 2.5547979 1
3.0799286 16.788769 3.3080399 28
7.0269566 18.699553 1.7446401 25
4.7045856 25.482758 3.1729219 17
16.772455 44.603405 0.8311708 2
4.7988229 25.86726 1.376959 12
9.1826572 24.408831 -1.369471 1
12.830007 69.199631 -1.2278739 6
6.1231017 16.260427 -2.1260333 8
nan nan nan 0
3.4874079 9.253336 -1.9118071 15
2.4812193 13.414643 -2.1576529 13
2.3500972 6.2306085 -1.7736963 14
1.5098532 8.2090244 -1.9159323 12
6.9494004 15.105252 3.5238061 22
3.9099894 15.18705 3.8955288 34
nan nan nan 0
3.7794986 14.637646 2.6567893 27
nan nan nan 0
4.373806 16.891933 1.8302934 8
23.282415 50.746113 0 6
13.599261 52.462986 1.8913782 29
nan nan nan 0
5.3687358 20.691628 -0.74900657 39
5.9786162 12.990499 -1.9998111 15
5.888443 22.695368 -2.452431 1
3.6190822 7.8424325 -1.830086 14
2.9325349 11.298517 -2.052089 13
2.5596433 5.5243912 -1.7347704 12
1.8840266 7.2662435 -1.8614955 14
5.2312341 13.907419 3.4168935 30
nan nan nan 0
6.9437146 18.468319 3.1124279 1
3.0828588 16.788231 3.3080399 28
7.03022 18.698326 1.7446401 25
4.7090335 25.481937 3.1729219 17
33.984562 90.32338 1.6838953 1
6.0488362 32.579994 1.7348061 1
9.1869173 24.407228 -1.369471 1
12.854155 69.19516 -1.2278739 6
6.1259394 16.259357 -2.1260333 8
nan nan nan 0
3.4890227 9.2527266 -1.9118071 15
2.4859016 13.413776 -2.1576529 13
2.352272 6.2297878 -1.7736963 14
1.511286 8.2087603 -1.9159323 12
7.0268145 15.13413 3.5362704 23
3.9298902 15.046555 3.862915 29
nan nan nan 0
3.8324411 14.631508 2.6580904 27
nan nan nan 0
4.4043326 16.768345 1.8185339 6
19.67091 42.484215 0 2
13.845835 52.656834 1.900103 40
nan nan nan 0
5.4205885 20.59544 -0.74620068 58
6.0187073 12.958324 -1.9980757 14
5.3824549 20.450447 -2.2115114 34
3.6423016 7.8208871 -1.8280051 15
2.9688241 11.276305 -2.0499182 13
2.5768726 5.5110703 -1.7333932 13
1.9062972 7.2478914 -1.8584737 15
5.279748 13.889073 3.4168935 26
3.2733948 17.653345 4.7948384 7
5.8027434 15.272412 2.5762601 10
3.1554241 16.85215 3.3228145 31
7.1662292 18.859911 1.7620711 22
4.794281 25.445833 3.1704879 17
18.407978 48.41304 0.90346736 4
4.8987031 25.876484 1.3783982 10
9.1530981 24.062336 -1.3518798 1
13.058883 68.955849 -1.2244271 26
6.1729431 16.212366 -2.1226866 8
5.570477 29.428288 -2.6120696 9
3.519551 9.2359047 -1.9108547 13
2.5299635 13.390458 -2.1553037 13
2.3740034 6.221539 -1.7736963 15
1.540827 8.2082243 -1.9170554 13
7.0268145 15.13413 3.5362704 23
3.9298902 15.046555 3.862915 29
nan nan nan 0
3.8324411 14.631508 2.6580904 27
nan nan nan 0
5.3147235 20.236084 2.195359 1
23.515093 50.784763 0 4
13.845835 52.656834 1.900103 40
nan nan nan 0
5.4205885 20.59544 -0.74620068 58
6.0187073 12.958324 -1.9980757 14
5.3824492 20.450449 -2.2115114 34
3.6423016 7.8208871 -1.8280051 15
2.9668558 11.276823 -2.0499182 13
2.5768726 5.5110703 -1.7333932 13
1.9050323 7.2482238 -1.8584737 15
5.279748 13.889073 3.4168935 26
3.2703137 17.653917 4.7948384 7
5.8027434 15.272412 2.5762601 10
3.1524827 16.852701 3.3228145 31
7.1662292 18.859911 1.7620711 22
4.7898393 25.446671 3.1704879 17
34.294308 90.190178 1.6836336 1
6.1712112 32.635807 1.738862 1
9.1530981 24.062336 -1.3518798 1
13.046847 68.95813 -1.2244271 26
6.1729431 16.212366 -2.1226866 8
5.565341 29.429258 -2.6120696 9
3.5179389 9.2365179 -1.9108547 13
2.5276265 13.3909 -2.1553037 13
2.3729177 6.2219529 -1.7736963 15
1.540827 8.2082243 -1.9170554 13
7.0966797 15.152816 3.546138 20
3.8910303 14.698068 3.7765491 27
nan nan nan 0
3.8493688 14.499732 2.6364059 28
nan nan nan 0
4.4394565 16.676762 1.8101716 8
19.828611 42.454994 0 3
5.4820809 20.566364 0.74205047 9
nan nan nan 0
5.4869237 20.57011 -0.74593765 61
6.0511351 12.915878 -1.9946049 13
5.4310179 20.360416 -2.2036979 40
3.661972 7.7954888 -1.8248838 14
2.9997978 11.25027 -2.0468793 10
2.5951335 5.5024948 -1.7333932 13
1.9278101 7.2371783 -1.8572649 15
5.3301439 13.88286 3.4197009 26
3.3346517 17.673828 4.8032393 28
nan nan nan 0
3.197803 16.786703 3.3118527 30
7.4134808 19.317331 1.8071742 20
4.8802643 25.46233 3.1744428 14
18.43041 47.992386 0.89674824 2
4.9695954 25.807028 1.3755198 26
9.219408 23.996895 -1.3499107 6
13.239051 68.725479 -1.2210674 34
6.1972723 16.115379 -2.1126468 8
5.5970287 29.068245 -2.5816259 7
3.5414968 9.2064781 -1.9070455 13
2.5669007 13.355769 -2.1509969 14
2.3883257 6.2005296 -1.7698165 14
1.5657578 8.1911049 -1.9142478 12
7.0966797 15.152816 3.546138 20
3.8910303 14.698068 3.7765491 27
nan nan nan 0
3.8493688 14.499732 2.6364059 28
nan nan nan 0
4.4394565 16.676762 1.8101716 8
23.740507 50.828815 0 4
14.084061 52.849636 1.9087405 2
nan nan nan 0
5.4869237 20.57011 -0.74593765 61
6.0511351 12.915878 -1.9946049 13
5.4310236 20.360415 -2.2036979 40
3.661972 7.7954888 -1.8248838 14
3.001761 11.249746 -2.0468793 10
2.5951335 5.5024948 -1.7333932 13
1.9290733 7.2368417 -1.8572649 15
5.3301439 13.88286 3.4197009 26
3.3377364 17.673246 4.8032393 28
nan nan nan 0
3.2007329 16.786144 3.3118527 30
7.4134808 19.317331 1.8071742 20
4.8847084 25.461477 3.1744428 14
34.706123 90.369972 1.689131 25
4.9740992 25.80616 1.3755198 26
9.219408 23.996895 -1.3499107 6
13.251045 68.723167 -1.2210674 34
6.1972723 16.115379 -2.1126468 8
5.6021013 29.067268 -2.5816259 7
3.5431035 9.2058592 -1.9070455 13
2.5692317 13.355321 -2.1509969 14
2.3894076 6.2001128 -1.7698165 14
1.5657578 8.1911049 -1.9142478 12
7.0538592 14.918913 3.497319 20
3.9027252 14.52673 3.7360837 27
nan nan nan 0
3.9044077 14.49266 2.637707 24
nan nan nan 0
4.486939 16.60997 1.8046839 4
20.02141 42.461174 0 4
5.5411205 20.485836 0.73986924 38
nan nan nan 0
5.5844674 20.631861 -0.74891889 30
6.0920787 12.880187 -1.9925226 14
5.4984684 20.313969 -2.2008328 43
3.6852748 7.7709703 -1.8222828 14
3.0397582 11.226787 -2.0447087 13
2.61218 5.4864388 -1.7313272 14
1.9536864 7.2226973 -1.8554517 15
5.407444 13.931359 3.4365468 24
3.3591449 17.435596 4.7418494 26
nan nan nan 0
3.2266786 16.591206 3.2756314 36
7.5337901 19.41773 1.8191582 23
4.9727602 25.416615 3.1710961 24
18.541044 47.756737 0.89360678 43
5.0609536 25.748562 1.3734263 25
9.3036852 23.953638 -1.3493857 6
13.542372 68.875259 -1.2246453 1
6.2509003 16.078682 -2.1108212 8
5.6385345 28.689739 -2.5498776 4
3.5732596 9.1836634 -1.9051408 13
2.6162663 13.336122 -2.1494308 13
2.4121163 6.1913137 -1.7698165 14
1.5953041 8.1829185 -1.9136862 12
7.0538592 14.918913 3.497319 20
3.9027252 14.52673 3.7360837 27
nan nan nan 0
3.9044077 14.49266 2.637707 24
nan nan nan 0
4.486939 16.60997 1.8046839 4
23.970369 50.834167 0 4
5.5411205 20.485836 0.73986924 38
nan nan nan 0
5.5844674 20.631861 -0.74891889 30
6.0920787 12.880187 -1.9925226 14
5.4984684 20.313969 -2.2008328 43
3.6852748 7.7709703 -1.8222828 14
3.0397582 11.226787 -2.0447087 13
2.61218 5.4864388 -1.7313272 14
1.9536864 7.2226973 -1.8554517 15
5.407444 13.931359 3.4365468 24
3.3591449 17.435596 4.7418494 26
nan nan nan 0
3.2266786 16.591206 3.2756314 36
7.5337901 19.41773 1.8191582 23
4.9727602 25.416615 3.1710961 24
35.146587 90.524117 1.6944104 1
5.0609536 25.748562 1.3734263 25
9.3036852 23.953638 -1.3493857 6
13.542372 68.875259 -1.2246453 1
6.2509003 16.078682 -2.1108212 8
5.6385345 28.689739 -2.5498776 4
3.5732596 9.1836634 -1.9051408 13
2.6162663 13.336122 -2.1494308 13
2.4121163 6.1913137 -1.7698165 14
1.5953041 8.1829185 -1.9136862 12
7.115376 14.914062 3.5019932 24
3.9342909 14.442796 3.7179651 29
nan nan nan 0
3.9296834 14.38631 2.6207931 28
16.874201 35.450809 2.7361524 4
5.3261113 19.44791 2.1156561 12
20.209255 42.474548 0 4
5.6020274 20.427818 0.7384733 53
nan nan nan 0
nan nan nan 0
6.1273985 12.838737 -1.989399 13
5.575922 20.31863 -2.2034373 40
3.7081516 7.749238 -1.8202019 15
3.0743697 11.199488 -2.0416701 14
2.6313155 5.4772878 -1.7313272 14
1.9782455 7.2134938 -1.8548473 15
5.6633348 14.440809 3.5673828 25
3.3949008 17.295786 4.7069545 29
6.1615667 15.718878 2.6624994 10
3.2683804 16.497986 3.2594273 31
7.5287943 19.205824 1.8017271 22
5.068718 25.435606 3.1756599 17
18.718588 47.71965 0.89413035 6
5.1723442 25.838451 1.3791832 18
9.3689985 23.874535 -1.3467602 6
12.990315 64.869217 -1.1541805 34
6.2843022 15.999026 -2.1032152 8
5.7059212 28.506256 -2.5353081 4
3.6043966 9.1688509 -1.9046646 14
2.6599045 13.31238 -2.1470819 12
2.4301734 6.1738687 -1.76723 15
1.6205459 8.1605721 -1.9097555 13
7.115376 14.914062 3.5019932 24
3.9342909 14.442796 3.7179651 29
nan nan nan 0
3.9296834 14.38631 2.6207931 28
nan nan nan 0
5.3261113 19.44791 2.1156561 12
24.225019 50.912716 0 2
5.6020274 20.427818 0.7384733 53
nan nan nan 0
nan nan nan 0
6.1273985 12.838737 -1.989399 13
5.5759163 20.318632 -2.2034373 40
3.7081516 7.749238 -1.8202019 15
3.0724146 11.200024 -2.0416701 14
2.6313155 5.4772878 -1.7313272 14
1.9769863 7.2138391 -1.8548473 15
5.6633348 14.440809 3.5673828 25
3.3918822 17.296379 4.7069545 29
6.1615667 15.718878 2.6624994 10
3.2655008 16.498556 3.2594273 31
7.5287943 19.205824 1.8017271 22
5.0642791 25.436491 3.1756599 17
35.663189 90.912804 1.7040092 1
5.1678348 25.839354 1.3791832 18
9.3689985 23.874535 -1.3467602 6
12.978993 64.871483 -1.1541805 34
6.2843022 15.999026 -2.1032152 8
5.7009459 28.507252 -2.5353081 4
3.6027963 9.1694803 -1.9046646 14
2.6575809 13.312843 -2.1470819 12
2.4290955 6.174293 -1.76723 15
1.6205459 8.1605721 -1.9097555 13
7.1663308 14.886931 3.5014739 27
4.0027542 14.494453 3.7348759 26
nan nan nan 0
3.978564 14.36776 2.6199257 28
16.980564 35.355724 2.7333691 53
4.5203476 16.281168 1.7722801 9
20.388779 42.469101 0 6
5.6846714 20.44906 0.73995656 39
nan nan nan 0
nan nan nan 0
6.1603537 12.792736 -1.9855812 13
5.669456 20.380493 -2.2122927 34
3.7309225 7.7274413 -1.8181212 13
3.103581 11.160766 -2.0364606 13
2.6514683 5.4702306 -1.7320158 12
2.0015068 7.2045565 -1.8542429 14
5.7711535 14.565895 3.6033204 24
3.4290903 17.168385 4.6752906 29
6.2163982 15.697272 2.6624994 5
3.301765 16.381199 3.2384572 34
7.4903107 18.913153 1.7766699 22
4.2200665 20.812386 2.5994287 10
36.074257 91.02478 1.7084595 62
5.6258268 27.629089 1.4758738 1
9.4283514 23.781347 -1.343347 3
13.199871 64.798836 -1.1537006 38
6.3263783 15.942395 -2.0986516 8
5.7363672 28.172352 -2.5072565 4
3.6293468 9.1431618 -1.9018075 15
2.7020712 13.293807 -2.1455157 13
2.4470627 6.1567998 -1.7646434 15
1.6480587 8.1500902 -1.9086324 13
7.1663308 14.886931 3.5014739 27
4.0027542 14.494453 3.7348759 26
22.092031 45.954514 7.1611509 9
3.978564 14.36776 2.6199257 28
16.980564 35.355724 2.7333691 53
5.4185653 19.517843 2.125325 1
24.44804 50.922497 0 2
5.6846714 20.44906 0.73995656 39
nan nan nan 0
nan nan nan 0
6.1603537 12.792736 -1.9855812 13
5.669456 20.380493 -2.2122927 34
3.7309225 7.7274413 -1.8181212 13
3.103581 11.160766 -2.0364606 13
2.6514683 5.4702306 -1.7320158 12
2.0015068 7.2045565 -1.8542429 14
5.7711535 14.565895 3.6033204 24
3.4290903 17.168385 4.6752906 29
7.3468223 18.550943 3.1475482 14
3.301765 16.381199 3.2384572 34
7.4903107 18.913153 1.7766699 22
5.4702673 26.98489 3.3715906 1
36.074257 91.02478 1.7084595 62
5.6258268 27.629089 1.4758738 1
9.4283514 23.781347 -1.343347 3
13.199871 64.798836 -1.1537006 38
6.3263783 15.942395 -2.0986516 8
5.7363672 28.172352 -2.5072565 4
3.6293468 9.1431618 -1.9018075 15
2.7020712 13.293807 -2.1455157 13
2.4470627 6.1567998 -1.7646434 15
1.6480587 8.1500902 -1.9086324 13
nan nan nan 0
4.0389452 14.428996 3.7215889 26
16.465698 33.949467 5.2979712 20
4.0147276 14.304002 2.6108181 26
16.111811 33.249523 2.5747213 46
4.5751314 16.258108 1.7714962 9
20.57723 42.480919 0 6
nan nan nan 0
nan nan nan 0
nan nan nan 0
6.2006407 12.762248 -1.9841928 14
5.7648439 20.446732 -2.221669 18
3.7557294 7.7099757 -1.8170809 14
3.1391833 11.138015 -2.0342901 13
2.6673751 5.4544673 -1.7299497 13
2.0233591 7.1858501 -1.851221 14
5.8844423 14.701712 3.642066 24
3.4870753 17.146843 4.6727057 25
6.3106041 15.77406 2.6792791 8
3.3411911 16.283022 3.2212996 28
7.4184155 18.54237 1.7442043 13
4.274652 20.710039 2.5884762 21
36.472607 91.100197 1.7122556 31
5.6979356 27.49194 1.4695936 26
9.4918108 23.699623 -1.3405901 2
nan nan nan 0
6.3607478 15.867244 -2.0916543 9
5.7781076 27.879017 -2.4829016 5
3.6594126 9.1258821 -1.9008552 13
2.7459614 13.272203 -2.143558 13
2.4685392 6.1482205 -1.7646434 15
1.6755182 8.1395149 -1.9075093 14
nan nan nan 0
4.0389452 14.428996 3.7215889 26
22.172344 45.712292 7.1354046 9
4.0147276 14.304002 2.6108181 26
17.087559 35.262577 2.7307599 1
4.5751314 16.258108 1.7714962 9
24.680147 50.949341 0 3
nan nan nan 0
nan nan nan 0
nan nan nan 0
6.2006407 12.762248 -1.9841928 14
5.7648439 20.446732 -2.221669 18
3.7557294 7.7099757 -1.8170809 14
3.1391833 11.138015 -2.0342901 13
2.6673751 5.4544673 -1.7299497 13
2.0233591 7.1858501 -1.851221 14
5.8844423 14.701712 3.642066 24
3.4870753 17.146843 4.6727057 25
7.459239 18.644402 3.16784 1
3.3411911 16.283022 3.2212996 28
7.4184155 18.54237 1.7442043 13
5.5909867 27.094435 3.3877153 1
36.472607 91.100197 1.7122556 31
5.6979356 27.49194 1.4695936 26
9.4918108 23.699623 -1.3405901 2
nan nan nan 0
6.3607478 15.867244 -2.0916543 9
5.7781076 27.879017 -2.4829016 5
3.6594126 9.1258821 -1.9008552 13
2.7459614 13.272203 -2.143558 13
2.4685392 6.1482205 -1.7646434 15
1.6755182 8.1395149 -1.9075093 14
7.5311732 15.375803 3.628715 23
4.092062 14.434195 3.7264204 28
16.592331 33.923588 5.3024945 32
4.071559 14.323768 2.61689 22
16.192408 33.135414 2.5700245 36
4.6412811 16.285889 1.7761999 14
20.756399 42.491066 0 6
5.8079691 20.354633 0.73794985 1
nan nan nan 0
nan nan nan 0
6.2298479 12.71494 -1.980028 14
6.6023884 23.124451 -2.5154607 1
3.7758803 7.6865077 -1.8144798 14
3.1713734 11.11097 -2.031251 14
2.6886413 5.4520564 -1.7320158 9
2.0465121 7.1767678 -1.8506166 15
5.9751592 14.786011 3.667896 18
3.5439172 17.135185 4.6727057 24
6.5229101 16.149141 2.746788 17
3.3841555 16.218996 3.2108147 30
7.4696007 18.492268 1.7418075 21
4.3433051 20.695751 2.5884762 28
36.809166 91.064491 1.7138698 1
5.6630478 26.874355 1.4375378 10
9.5535011 23.626356 -1.3382272 4
nan nan nan 0
6.3928447 15.795461 -2.0849609 8
5.8084369 27.564816 -2.4565895 6
3.6822841 9.095499 -1.897046 13
2.7889438 13.258192 -2.1427751 13
2.4852829 6.1310496 -1.7620571 15
1.699514 8.119606 -1.9041402 13
7.5311732 15.375803 3.628715 23
4.092062 14.434195 3.7264204 28
22.233507 45.453941 7.1065259 4
4.071559 14.323768 2.61689 22
17.135401 35.06456 2.7198005 1
4.6384382 16.286699 1.7761999 14
24.895058 50.961563 0 9
5.8079691 20.354633 0.73794985 1
nan nan nan 0
nan nan nan 0
6.2276287 12.716027 -1.980028 14
6.6023884 23.124451 -2.5154607 1
3.7745385 7.6871667 -1.8144798 14
3.1713734 11.11097 -2.031251 14
2.6876895 5.4525251 -1.7320158 9
2.0465121 7.1767678 -1.8506166 15
5.9725785 14.787054 3.667896 18
3.5439172 17.135185 4.6727057 24
6.5200915 16.150278 2.746788 17
3.3841555 16.218996 3.2108147 30
7.4663734 18.49357 1.7418075 21
4.3433051 20.695751 2.5884762 28
36.79327 91.070915 1.7138698 1
5.6630478 26.874355 1.4375378 10
9.5493774 23.628023 -1.3382272 4
nan nan nan 0
6.3900876 15.796576 -2.0849609 8
5.8036261 27.565828 -2.4565895 6
3.6822841 9.095499 -1.897046 13
2.7866297 13.258678 -2.1427751 13
2.4842129 6.1314836 -1.7620571 15
1.6980968 8.1199026 -1.9041402 13
7.540854 15.253841 3.6063828 24
4.1389098 14.398115 3.7209847 29
16.644213 33.716038 5.279531 36
4.1015401 14.230674 2.6025779 23
15.543553 31.514729 2.4486034 13
4.7236114 16.357973 1.7858688 6
20.957335 42.506634 0 6
4.702528 16.253002 0.58962697 5
nan nan nan 0
nan nan nan 0
6.2709002 12.68646 -1.9789869 14
6.1804633 21.349405 -2.3245482 1
3.7994273 7.6667085 -1.812919 13
3.2100241 11.092176 -2.0299487 14
2.7033682 5.4340343 -1.729261 9
2.0734761 7.1715498 -1.851221 15
6.1372385 15.035708 3.7352793 18
nan nan nan 0
6.4504843 15.810763 2.6929374 30
3.4410315 16.194479 3.208432 32
7.5501027 18.505281 1.7455117 26
4.3978901 20.580193 2.5760024 32
nan nan nan 0
5.7547059 26.821682 1.4358369 20
9.6415796 23.606733 -1.3390149 3
nan nan nan 0
6.4310374 15.731708 -2.0794847 9
5.8075967 27.091408 -2.4161429 6
3.7137368 9.0773993 -1.8960936 13
2.8295314 13.221813 -2.1384683 15
2.5094159 6.1290412 -1.7639968 16
1.7263281 8.1064758 -1.9024557 13
7.540854 15.253841 3.6063828 24
4.1389098 14.398115 3.7209847 29
22.295824 45.161266 7.0734725 4
4.1015401 14.230674 2.6025779 23
16.927258 34.319366 2.6667442 18
5.8572221 20.272179 2.214174 6
25.13254 50.973118 0 3
4.702528 16.253002 0.58962697 5
nan nan nan 0
nan nan nan 0
6.2731142 12.685365 -1.9789869 14
6.1804633 21.349405 -2.3245482 1
3.800765 7.6660457 -1.812919 13
3.2100241 11.092176 -2.0299487 14
2.7043166 5.4335623 -1.729261 9
2.0734761 7.1715498 -1.851221 15
6.139863 15.034637 3.7352793 18
nan nan nan 0
6.4532437 15.809637 2.6929374 30
3.4410315 16.194479 3.208432 32
7.5533323 18.503962 1.7455117 26
4.3978901 20.580193 2.5760024 32
nan nan nan 0
5.7547059 26.821682 1.4358369 20
9.6456995 23.605049 -1.3390149 3
nan nan nan 0
6.4337831 15.730585 -2.0794847 9
5.8123245 27.090393 -2.4161429 6
3.7137368 9.0773993 -1.8960936 13
2.8318391 13.221319 -2.1384683 15
2.5104854 6.1286025 -1.7639968 16
1.727743 8.1061745 -1.9024557 13
7.6584773 15.356528 3.6370249 26
4.182363 14.360287 3.7149453 31
16.726479 33.586823 5.2683973 71
4.1222181 14.117003 2.584363 29
15.649022 31.451353 2.4479077 39
4.8400931 16.533836 1.8070359 9
21.160147 42.542896 0 16
4.7529101 16.214907 0.58884174 7
nan nan nan 0
4.765552 16.247545 -0.59301472 2
6.307404 12.643456 -1.9758633 12
6.7026391 22.854721 -2.4912386 2
3.8209324 7.6396136 -1.809798 15
3.2424934 11.059639 -2.0260415 14
2.7254267 5.4283834 -1.7306385 9
2.0950904 7.1526265 -1.8481991 15
6.2025261 15.037885 3.741456 24
3.4935913 16.301733 4.451704 30
6.6072364 16.026714 2.7339106 20
3.5244648 16.307114 3.2332146 24
7.6368661 18.523531 1.7498693 28
4.426528 20.365873 2.5510547 32
nan nan nan 0
5.8339367 26.735573 1.4323043 28
9.7423267 23.605852 -1.3409841 3
nan nan nan 0
6.4791775 15.685097 -2.0764422 9
5.8230243 26.685469 -2.3817849 8
3.7369614 9.0439682 -1.8918082 12
2.8758738 13.201703 -2.1369023 14
2.528168 6.1108775 -1.7614104 15
1.7544838 8.0929499 -1.900771 12
7.6584773 15.356528 3.6370249 26
4.182363 14.360287 3.7149453 31
16.726479 33.586823 5.2683973 71
4.1222181 14.117003 2.584363 29
15.649022 31.451353 2.4479077 39
5.8951316 20.139454 2.2018919 1
25.420555 51.106667 0 1
4.7529101 16.214907 0.58884174 7
nan nan nan 0
4.765552 16.247545 -0.59301472 2
6.307404 12.643456 -1.9758633 12
6.7026391 22.854721 -2.4912386 2
3.8209324 7.6396136 -1.809798 15
3.2424934 11.059639 -2.0260415 14
2.7254267 5.4283834 -1.7306385 9
2.0950904 7.1526265 -1.8481991 15
6.2025261 15.037885 3.741456 24
3.4935913 16.301733 4.451704 30
6.6072364 16.026714 2.7339106 20
3.5244648 16.307114 3.2332146 24
7.6368661 18.523531 1.7498693 28
4.426528 20.365873 2.5510547 32
nan nan nan 0
5.8339367 26.735573 1.4323043 28
9.7423267 23.605852 -1.3409841 3
nan nan nan 0
6.4791775 15.685097 -2.0764422 9
5.8230243 26.685469 -2.3817849 8
3.7369614 9.0439682 -1.8918082 12
2.8758738 13.201703 -2.1369023 14
2.528168 6.1108775 -1.7614104 15
1.7544838 8.0929499 -1.900771 12
7.743434 15.398767 3.6531246 31
4.324595 14.667466 3.7982917 23
16.872213 33.599758 5.2791829 58
4.2122622 14.249649 2.6112518 21
15.604455 31.102827 2.4247715 53
4.8920693 16.50816 1.8059906 5
25.633608 51.109238 0 6
4.8187327 16.239779 0.59032494 9
nan nan nan 0
4.797368 16.157402 -0.59029645 9
6.3292589 12.582664 -1.9696161 14
6.7854648 22.856205 -2.4938431 2
3.8429384 7.6203513 -1.8082372 16
3.2777503 11.044105 -2.0251734 12
2.737978 5.4085984 -1.7271951 8
2.1167307 7.1386623 -1.846386 14
6.3403983 15.228629 3.7942398 22
3.5655937 16.372652 4.4743209 27
nan nan nan 0
3.5459263 16.146711 3.203666 22
7.6886797 18.475113 1.7476906 25
4.4902978 20.33412 2.5489249 28
nan nan nan 0
5.9069047 26.645391 1.42851 26
9.8291941 23.594152 -1.3421655 2
nan nan nan 0
6.5254245 15.649784 -2.0746167 9
5.8657017 26.459328 -2.3633013 24
3.7631514 9.0224667 -1.8899034 12
2.9143093 13.167984 -2.1329873 14
2.5437624 6.0913186 -1.7581772 15
1.7828796 8.0942268 -1.9024557 13
7.743434 15.398767 3.6531246 31
4.324595 14.667466 3.7982917 23
16.872213 33.599758 5.2791829 58
4.2122622 14.249649 2.6112518 21
15.604455 31.102827 2.4247715 53
6.2519574 21.112597 2.3106017 1
25.626883 51.095833 0 1
4.8187327 16.239779 0.59032494 9
nan nan nan 0
4.797368 16.157402 -0.59029645 9
6.3270631 12.583769 -1.9696161 14
6.7854648 22.856205 -2.4938431 2
3.8416083 7.6210222 -1.8082372 16
3.2777503 11.044105 -2.0251734 12
2.7370338 5.4090762 -1.7271951 8
2.1167307 7.1386623 -1.846386 14
6.3377404 15.229736 3.7942398 22
3.5655937 16.372652 4.4743209 27
nan nan nan 0
3.5459263 16.146711 3.203666 22
7.6854553 18.476454 1.7476906 25
4.4902978 20.33412 2.5489249 28
nan nan nan 0
5.9069047 26.645391 1.42851 26
9.8250761 23.595869 -1.3421655 2
nan nan nan 0
6.5226932 15.650923 -2.0746167 9
5.8610835 26.46035 -2.3633013 24
3.7631514 9.0224667 -1.8899034 12
2.9120109 13.168492 -2.1329873 14
2.5426996 6.0917625 -1.7581772 15
1.7814668 8.0945377 -1.9024557 13
7.8430014 15.455321 3.6733794 7
4.3602738 14.591082 3.7825885 22
16.922495 33.394157 5.2565675 70
4.2595172 14.217605 2.608216 19
15.709332 31.027624 2.4233799 53
4.9353743 16.443354 1.800764 2
25.883993 51.139851 0 6
5.2478981 17.451866 0.63517076 40
9.8782291 19.497089 -1.5221174 6
4.8630314 16.161242 -0.59108561 29
6.3596907 12.534003 -1.9654511 12
6.7789555 22.531172 -2.461026 3
3.8639665 7.5959964 -1.8056362 16
3.3153725 11.022587 -2.023437 15
2.7546523 5.3947287 -1.7258178 8
2.1400914 7.121563 -1.8439685 15
6.137578 14.597847 3.642066 26
3.6167066 16.319389 4.4633355 25
6.3592448 15.132271 2.5883572 24
3.617377 16.188696 3.2146275 23
7.8023434 18.565252 1.7588029 22
4.6452212 20.675859 2.5939524 26
nan nan nan 0
6.0209908 26.696627 1.432435 24
9.9269848 23.596518 -1.3442658 2
13.289837 58.951027 -1.0542212 20
6.5703807 15.604041 -2.0715742 9
5.8836188 26.108253 -2.3337274 9
3.7885678 8.9905214 -1.8860942 10
2.9580917 13.148095 -2.1314211 14
2.5650096 6.0824022 -1.7581772 15
1.8084676 8.0760651 -1.899648 14
7.8430014 15.455321 3.6733794 7
4.3602738 14.591082 3.7825885 22
16.922495 33.394157 5.2565675 70
4.2595172 14.217605 2.608216 19
15.709332 31.027624 2.4233799 53
6.1049309 20.328796 2.2272401 13
25.883993 51.139851 0 6
5.2478981 17.451866 0.63517076 40
9.8816319 19.495365 -1.5221174 6
4.8630314 16.161242 -0.59108561 29
6.3618779 12.532892 -1.9654511 12
6.7789612 22.53117 -2.461026 3
3.8652921 7.5953217 -1.8056362 16
3.317296 11.022009 -2.023437 15
2.7555935 5.394248 -1.7258178 8
2.1413343 7.1211896 -1.8439685 15
6.1401262 14.596776 3.642066 26
3.619555 16.318758 4.4633355 25
6.3618855 15.131161 2.5883572 24
3.6202023 16.188065 3.2146275 23
7.8055835 18.56389 1.7588029 22
4.6488299 20.675049 2.5939524 26
nan nan nan 0
6.02565 26.695576 1.432435 24
9.9311028 23.594784 -1.3442658 2
13.310408 58.946388 -1.0542212 20
6.5731039 15.602895 -2.0715742 9
5.8927321 26.106197 -2.3337274 9
3.7901368 8.9898605 -1.8860942 10
2.9626811 13.147061 -2.1314211 14
2.5671327 6.0815063 -1.7581772 15
1.8098772 8.0757484 -1.899648 14
22.36447 43.675644 10.413535 1
4.3971319 14.529332 3.7705095 21
16.972464 33.204834 5.2360392 27
4.3091207 14.202649 2.608216 20
15.873137 31.081429 2.4319038 16
4.8589268 15.97556 1.7513744 6
19.870686 38.923527 0 24
5.3044195 17.419102 0.63464731 43
9.8451376 19.256483 -1.5061134 7
4.9150481 16.129829 -0.59055954 4
6.3886528 12.477559 -1.9602451 13
4.9116669 16.118687 -1.7614475 6
3.8861926 7.5709085 -1.8030353 15
3.3550324 11.008007 -2.0230029 14
2.7699969 5.3760538 -1.723063 8
2.1661787 7.1136708 -1.8439685 16
6.1853242 14.561799 3.6386964 27
3.6642938 16.251835 4.4484725 24
6.4001856 15.074767 2.5825038 26
3.6772306 16.177723 3.2151041 19
7.8927264 18.589252 1.7638143 5
3.6589212 16.006618 2.0088985 14
nan nan nan 0
6.1433411 26.781454 1.438192 12
9.9987535 23.525513 -1.3422968 2
13.516088 58.899567 -1.0542212 77
6.6216989 15.566154 -2.0697489 10
5.9626794 25.993221 -2.325464 4
3.8214941 8.9765749 -1.8860942 12
3.0030506 13.11257 -2.127506 14
2.5864508 6.0680666 -1.756884 16
1.8380558 8.0693827 -1.899648 14
22.36447 43.675644 10.413535 1
4.3971319 14.529332 3.7705095 21
16.972464 33.204834 5.2360392 27
4.3091207 14.202649 2.608216 20
17.303808 33.882023 2.651262 18
6.221416 20.457228 2.2437036 1
26.107824 51.138245 0 1
5.3044195 17.419102 0.63464731 43
9.8417759 19.2582 -1.5061134 7
4.9150481 16.129829 -0.59055954 4
6.3886528 12.477559 -1.9602451 13
4.9116611 16.118689 -1.7614475 6
3.8861926 7.5709085 -1.8030353 15
3.353111 11.008592 -2.0230029 14
2.7699969 5.3760538 -1.723063 8
2.164937 7.114049 -1.8439685 16
6.1853242 14.561799 3.6386964 27
3.6614573 16.252474 4.4484725 24
6.4001856 15.074767 2.5825038 26
3.674407 16.178364 3.2151041 19
7.8927264 18.589252 1.7638143 5
4.6941876 20.557911 2.5811744 1
nan nan nan 0
6.1386666 26.782526 1.438192 12
9.9987535 23.525513 -1.3422968 2
13.505808 58.901928 -1.0542212 77
6.6216989 15.566154 -2.0697489 10
5.9581428 25.994261 -2.325464 4
3.8199275 8.9772415 -1.8860942 12
3.000762 13.113092 -2.127506 14
2.5853915 6.0685172 -1.756884 16
1.8380558 8.0693827 -1.899648 14
22.402308 43.375698 10.36056 1
4.4165602 14.411832 3.7439353 21
17.056496 33.083771 5.2262974 36
4.3427706 14.135741 2.5986748 22
16.022657 31.105642 2.4381661 2
4.9344125 16.022661 1.7584301 8
17.280939 33.562057 0 40
5.381382 17.453009 0.63656682 32
9.8563576 19.121765 -1.4981112 5
5.4513993 17.669222 -0.64773023 36
6.4242125 12.439787 -1.9578156 14
4.9598351 16.075306 -1.7585826 8
3.9125962 7.5572972 -1.8030353 12
3.3864417 10.98035 -2.019964 16
2.7887459 5.3663516 -1.723063 7
2.1869016 7.0971742 -1.8415509 16
6.2140265 14.488628 3.6257815 25
3.7262414 16.274908 4.4581656 25
6.4333034 15.006944 2.5746992 27
3.7132182 16.088915 3.1998532 21
nan nan nan 0
3.7203858 16.030659 2.0134621 35
nan nan nan 0
6.3588686 27.305613 1.4675001 13
10.102476 23.540939 -1.3451849 2
5.5606203 23.856478 -0.42697656 2
6.6661997 15.520148 -2.0667067 10
6.0262651 25.876278 -2.3167658 10
3.8386412 8.9345417 -1.879904 13
3.0431669 13.088107 -2.1251569 15
2.6056042 6.0572381 -1.7562374 16
1.8645679 8.0557957 -1.8979634 14
22.402308 43.375698 10.36056 1
4.4165602 14.411832 3.7439353 21
17.056496 33.083771 5.2262974 36
4.3427706 14.135741 2.5986748 22
17.292892 33.570896 2.6316051 49
4.9344125 16.022661 1.7584301 8
nan nan nan 0
5.381382 17.453009 0.63656682 32
9.8563576 19.121765 -1.4981112 5
5.4513993 17.669222 -0.64773023 36
6.4242125 12.439787 -1.9578156 14
4.9598351 16.075306 -1.7585826 8
3.9125962 7.5572972 -1.8030353 12
3.3864417 10.98035 -2.019964 16
2.7887459 5.3663516 -1.723063 7
2.1869016 7.0971742 -1.8415509 16
6.2140265 14.488628 3.6257815 25
3.7262414 16.274908 4.4581656 25
6.4333034 15.006944 2.5746992 27
3.7132182 16.088915 3.1998532 21
nan nan nan 0
3.7203858 16.030659 2.0134621 35
nan nan nan 0
6.3588686 27.305613 1.4675001 13
10.102476 23.540939 -1.3451849 2
13.733443 58.949368 -1.0559227 26
6.6661997 15.520148 -2.0667067 10
6.0262651 25.876278 -2.3167658 10
3.8386412 8.9345417 -1.879904 13
3.0431669 13.088107 -2.1251569 15
2.6056042 6.0572381 -1.7562374 16
1.8645679 8.0557957 -1.8979634 14
22.587479 43.362293 10.376142 16
4.4337845 14.289742 3.7161531 22
17.105618 32.896645 5.2061172 38
4.393549 14.125198 2.5995421 23
16.322044 31.416872 2.4670427 32
5.0206428 16.102661 1.7691442 10
17.383005 33.472687 0 16
nan nan nan 0
9.8712597 18.987679 -1.4902834 8
5.5190001 17.669167 -0.64843172 30
6.4481416 12.379963 -1.9519155 13
5.0826125 16.271503 -1.7820234 10
3.9321549 7.5305915 -1.7999139 13
3.4225495 10.961411 -2.0186617 15
2.8018754 5.3459454 -1.7196196 7
2.2109404 7.0871811 -1.8409466 17
6.3197551 14.594269 3.6577885 25
3.7781103 16.240629 4.4523501 25
6.5700221 15.179279 2.6082585 18
nan nan nan 0
nan nan nan 0
3.8087392 16.155251 2.0308037 30
20.811714 48.051125 0.91341525 18
6.4185352 27.132614 1.4593881 23
10.232238 23.615484 -1.3514861 2
5.6369548 23.807734 -0.42645299 20
6.7065096 15.464913 -2.0624473 12
6.1033745 25.799339 -2.3117645 38
3.867851 8.916584 -1.8789517 13
3.0860004 13.065389 -2.1231992 13
2.6219189 6.0370312 -1.7530042 15
1.8926766 8.0492392 -1.8979634 16
22.587479 43.362293 10.376142 16
4.4337845 14.289742 3.7161531 22
17.105618 32.896645 5.2061172 38
4.393549 14.125198 2.5995421 23
16.322044 31.416872 2.4670427 32
5.0178318 16.103537 1.7691442 10
19.986357 38.484356 0 4
nan nan nan 0
9.8712597 18.987679 -1.4902834 8
5.5190001 17.669167 -0.64843172 30
6.4459805 12.381087 -1.9519155 13
5.0826125 16.271503 -1.7820234 10
3.9308405 7.5312772 -1.7999139 13
3.4225495 10.961411 -2.0186617 15
2.8009424 5.3464346 -1.7196196 7
2.2109404 7.0871811 -1.8409466 17
6.3172078 14.59537 3.6577885 25
3.7781103 16.240629 4.4523501 25
6.5673723 15.180426 2.6082585 18
nan nan nan 0
nan nan nan 0
3.8087392 16.155251 2.0308037 30
20.803328 48.054756 0.91341525 18
6.4185352 27.132614 1.4593881 23
10.223154 23.605816 -1.3508296 1
5.6328053 23.808714 -0.42645299 20
6.7038102 15.466084 -2.0624473 12
6.0988722 25.800402 -2.3117645 38
3.867851 8.916584 -1.8789517 13
3.08372 13.065928 -2.1231992 13
2.6208653 6.0374889 -1.7530042 15
1.8912717 8.0495682 -1.8979634 16
22.761852 43.345612 10.390164 1
4.5486894 14.490227 3.7723215 19
17.315783 33.032684 5.2367353 36
4.4691758 14.202149 2.616456 21
16.444651 31.397919 2.469826 34
5.1989822 16.492311 1.81383 31
17.499706 33.425934 0 1
15.70431 49.740402 1.8202703 1
9.8681574 18.828941 -1.4803678 18
nan nan nan 0
6.4777927 12.342111 -1.949139 14
5.5948787 17.705564 -1.9414212 35
3.9557936 7.5182004 -1.7999139 10
3.454433 10.935915 -2.0160568 15
2.8186564 5.3371167 -1.7196196 7
2.2322416 7.0728703 -1.8391334 16
6.4094615 14.674798 3.6830571 25
3.8480213 16.296179 4.4710898 23
6.7421913 15.443703 2.6574268 22
3.5485454 14.910037 2.9696581 25
nan nan nan 0
3.8357606 16.031513 2.0168087 29
20.75942 47.520519 0.90455818 43
6.5288591 27.196148 1.4639674 24
10.36437 23.715902 -1.3591001 2
5.7064795 23.768028 -0.42606032 10
6.7451148 15.421033 -2.0594046 10
5.7042766 23.777115 -2.1319292 15
3.8914909 8.8902206 -1.8760946 12
3.1235855 13.041221 -2.1208501 13
2.6418414 6.0309763 -1.7536508 16
1.9173911 8.040884 -1.8974019 15
22.761852 43.345612 10.390164 1
4.5486894 14.490227 3.7723215 19
17.315783 33.032684 5.2367353 36
4.4691758 14.202149 2.616456 21
16.444651 31.397919 2.469826 34
5.1989822 16.492311 1.81383 31
19.859871 37.932846 0 18
15.70431 49.740402 1.8202703 1
9.8681574 18.828941 -1.4803678 18
nan nan nan 0
6.4777927 12.342111 -1.949139 14
5.5948787 17.705564 -1.9414212 35
3.9557936 7.5182004 -1.7999139 10
3.454433 10.935915 -2.0160568 15
2.8186564 5.3371167 -1.7196196 7
2.2322416 7.0728703 -1.8391334 16
6.4094615 14.674798 3.6830571 25
3.8480213 16.296179 4.4710898 23
6.7421913 15.443703 2.6574268 22
3.5485454 14.910037 2.9696581 25
nan nan nan 0
3.8357606 16.031513 2.0168087 29
20.75942 47.520519 0.90455818 43
6.5288591 27.196148 1.4639674 24
10.36437 23.715902 -1.3591001 2
5.7064795 23.768028 -0.42606032 10
6.7451148 15.421033 -2.0594046 10
5.7042766 23.777115 -2.1319292 15
3.8914909 8.8902206 -1.8760946 12
3.1235855 13.041221 -2.1208501 13
2.6418414 6.0309763 -1.7536508 16
1.9173911 8.040884 -1.8974019 15
nan nan nan 0
4.5900126 14.436465 3.7626581 20
17.54903 33.181263 5.2704849 30
4.5084949 14.145794 2.6090834 23
16.459393 31.147818 2.4548657 48
5.2866082 16.558416 1.8232377 38
19.837599 37.554764 0 16
15.818034 49.46833 1.812418 1
9.9056139 18.733128 -1.4756711 6
nan nan nan 0
6.5171895 12.307347 -1.9474037 13
5.6491289 17.651787 -1.9377748 36
3.9787321 7.4950151 -1.7978331 12
3.4914927 10.913799 -2.0143204 15
2.8348043 5.3203897 -1.7175536 7
2.2559361 7.0577083 -1.8373202 16
nan nan nan 0
3.8784499 16.159843 4.4374871 24
6.9003925 15.649342 2.6972294 18
3.6561837 15.116402 3.0135047 30
nan nan nan 0
3.9307995 16.166847 2.0356715 22
21.010145 47.61792 0.90787417 79
4.8700161 19.958469 1.0748497 16
10.505671 23.801085 -1.366189 2
23.123907 94.838951 -1.7033249 1
6.7865462 15.362164 -2.0548413 10
6.2912207 25.80801 -2.3163309 13
3.9210711 8.8691645 -1.8746661 12
3.1672809 13.01289 -2.1181095 14
2.6590405 6.0102124 -1.7504177 16
1.9445597 8.0243301 -1.8951558 15
nan nan nan 0
4.5900126 14.436465 3.7626581 20
17.54903 33.181263 5.2704849 30
4.5084949 14.145794 2.6090834 23
16.459393 31.147818 2.4548657 48
5.2894983 16.557495 1.8232377 38
19.837599 37.554764 0 16
15.818034 49.46833 1.812418 1
9.908884 18.7314 -1.4756711 6
nan nan nan 0
6.5193372 12.306209 -1.9474037 13
5.6491346 17.651785 -1.9377748 36
3.9800401 7.4943199 -1.7978331 12
3.4933975 10.913191 -2.0143204 15
2.8357327 5.3198948 -1.7175536 7
2.2571681 7.0573149 -1.8373202 16
nan nan nan 0
3.8812704 16.159166 4.4374871 24
6.9031239 15.648137 2.6972294 18
3.6588221 15.115763 3.0135047 30
nan nan nan 0
3.9336212 16.166161 2.0356715 22
21.018456 47.61425 0.90787417 79
6.6580873 27.272747 1.4694628 1
10.510833 23.801533 -1.3663203 1
23.157005 94.830872 -1.7033249 1
6.789227 15.36098 -2.0548413 10
6.3002291 25.805813 -2.3163309 13
3.9226191 8.8684807 -1.8746661 12
3.171823 13.011783 -2.1181095 14
2.6611378 6.0092835 -1.7504177 16
1.9459603 8.0239906 -1.8951558 15
nan nan nan 0
4.582438 14.240219 3.7155495 25
17.63678 33.067383 5.2621341 22
4.9431577 15.325058 2.8302658 14
17.264864 32.397442 2.5581956 35
5.3648481 16.59334 1.8292481 25
19.852184 37.266861 0 13
14.504581 44.820183 1.6438534 18
9.8978796 18.553684 -1.4643638 5
nan nan nan 0
6.5564179 12.27246 -1.9456682 14
5.7137799 17.64142 -1.9388164 31
4.0027094 7.4739165 -1.7962725 13
3.5291955 10.893903 -2.0130181 15
2.8508675 5.3036165 -1.7154877 7
2.2780569 7.0378513 -1.8342983 16
6.5674334 14.740903 3.7116952 23
3.9159334 16.056355 4.4129314 24
6.8069878 15.285591 2.6386957 9
3.7308676 15.18155 3.0292323 34
nan nan nan 0
4.0494699 16.39325 2.0660956 22
21.118397 47.392185 0.90503812 63
4.9479361 19.959871 1.0758964 7
10.677216 23.951674 -1.3770849 9
23.532984 94.931427 -1.7065973 29
6.8306708 15.309994 -2.0511901 9
6.3932633 25.795753 -2.3174183 6
3.9465454 8.8390484 -1.871333 12
3.2136695 12.98625 -2.1157603 15
2.6850564 6.0065708 -1.7523575 16
1.9722139 8.0100508 -1.8934711 14
nan nan nan 0
4.582438 14.240219 3.7155495 25
22.714027 42.584217 6.7780771 1
4.9431577 15.325058 2.8302658 14
17.264864 32.397442 2.5581956 35
5.3648481 16.59334 1.8292481 25
19.852184 37.266861 0 13
14.504581 44.820183 1.6438534 18
9.8946409 18.55541 -1.4643638 5
nan nan nan 0
6.5564179 12.27246 -1.9456682 14
5.7137742 17.641422 -1.9388164 31
4.0027094 7.4739165 -1.7962725 13
3.5272942 10.894519 -2.0130181 15
2.8508675 5.3036165 -1.7154877 7
2.2768285 7.038249 -1.8342983 16
6.5674334 14.740903 3.7116952 23
3.913131 16.057039 4.4129314 24
6.8069878 15.285591 2.6386957 9
3.7282183 15.182202 3.0292323 34
nan nan nan 0
4.0466089 16.393955 2.0660956 22
21.118397 47.392185 0.90503812 63
6.779078 27.374117 1.4761356 8
10.677216 23.951674 -1.3770849 9
23.516415 94.935532 -1.7065973 29
6.8306708 15.309994 -2.0511901 9
6.388761 25.796869 -2.3174183 6
3.9450023 8.8397369 -1.871333 12
3.2114029 12.986811 -2.1157603 15
2.6840081 6.0070391 -1.7523575 16
1.9722139 8.0100508 -1.8934711 14
22.858469 42.443913 10.230722 9
4.6273837 14.218024 3.7137372 27
17.87532 33.248562 5.3004069 16
5.2458329 16.081043 2.9733837 23
16.058382 29.894873 2.3645825 3
5.4623275 16.705437 1.8436207 5
19.9035 37.066475 0 13
6.4995823 19.855471 0.72835243 3
9.873435 18.368744 -1.4521868 26
nan nan nan 0
6.5876827 12.233215 -1.9428917 12
5.7830763 17.65546 -1.9424629 32
4.0193334 7.4455447 -1.792631 14
3.5595739 10.871062 -2.0108473 14
2.8684392 5.2941332 -1.7154877 7
2.2994022 7.0283542 -1.833694 16
6.7771211 15.076763 3.8021011 25
3.967514 16.048662 4.4142237 28
6.9173622 15.395823 2.6617193 22
3.7542524 15.07211 3.009692 29
nan nan nan 0
4.1346626 16.515255 2.0831332 25
21.213936 47.185108 0.90242028 39
4.9960308 19.886114 1.0727562 31
10.754536 23.911583 -1.3768224 2
nan nan nan 0
6.8671393 15.255582 -2.0469308 9
6.4809403 25.802111 -2.3198102 4
3.9662302 8.8087044 -1.8675236 12
3.2490525 12.954534 -2.1122367 13
2.6979554 5.9848981 -1.7484778 16
1.9958206 7.9916477 -1.8906635 14
22.858469 42.443913 10.230722 9
4.6273837 14.218024 3.7137372 27
22.758968 42.329865 6.7495465 1
5.2458329 16.081043 2.9733837 23
17.58704 32.739841 2.5898554 20
6.7872925 20.771454 2.2930932 1
19.9035 37.066475 0 13
14.509378 44.332546 1.6277125 18
9.873435 18.368744 -1.4521868 26
nan nan nan 0
6.5855474 12.234365 -1.9428917 12
5.7830763 17.65546 -1.9424629 32
