# .PCD v0.7 - Point Cloud Data file format
VERSION 0.7
FIELDS x y z intensity
SIZE 4 4 4 4
TYPE F F F F
COUNT 1 1 1 1
WIDTH 1474
HEIGHT 1
VIEWPOINT 0 0 0 1 0 0 0
POINTS 1474
DATA ascii
4.6399603 -19.042507 2.0563362 9
2.937732 -47.153309 0 81
4.6648345 -19.173607 0.68786901 29
1.3825909 -22.345188 -1.55917 16
4.5634432 -18.771309 -0.67675406 25
0.7853229 -12.845251 -1.7992052 4
3.6588411 -15.052045 -1.6189796 6
0.5083425 -8.4605703 -1.7957524 7
2.2596266 -9.2921371 -1.6800475 5
0.3657842 -6.2509117 -1.784355 6
1.6097753 -6.6123214 -1.6868292 6
2.4018352 -18.012436 4.1805706 25
5.7377501 -17.74777 4.9815912 27
nan nan nan 0
5.7593122 -17.920948 3.6488047 28
4.6844611 -35.096077 3.0946825 13
9.867239 -30.821674 3.9636421 25
nan nan nan 0
10.28471 -32.221752 1.770787 20
nan nan nan 0
5.6436596 -17.698837 -0.32365748 5
1.8455297 -13.893212 -1.7140917 4
5.1330061 -16.089094 -1.4715182 5
1.1928904 -8.9877062 -1.7522914 6
3.0592327 -9.5777912 -1.5887778 5
0.85385078 -6.4555535 -1.7342521 6
2.1849248 -6.8162704 -1.6419069 5
1.1979792 -19.574005 4.1574159 19
4.143116 -16.901907 4.3237348 24
1.4139872 -22.853844 3.2131586 19
4.5115032 -18.459593 3.3411534 22
2.89803 -46.646324 3.2574983 2
4.6399603 -19.042507 2.0563362 9
2.937732 -47.153309 0 81
4.6648345 -19.173607 0.68786901 29
1.3825909 -22.345188 -1.55917 16
4.5634432 -18.771309 -0.67675406 25
0.7853229 -12.845251 -1.7992052 4
3.6588411 -15.052045 -1.6189796 6
0.5083425 -8.4605703 -1.7957524 7
2.2596266 -9.2921371 -1.6800475 5
0.3657842 -6.2509117 -1.784355 6
1.6097753 -6.6123214 -1.6868292 6
2.4018352 -18.012436 4.1805706 25
5.7377501 -17.74777 4.9815912 27
nan nan nan 0
5.7593122 -17.920948 3.6488047 28
6.2213621 -46.614609 4.1113544 1
9.867239 -30.821674 3.9636421 25
6.6546268 -49.928246 0.87859774 1
14.664494 -45.93716 2.5253406 1
5.1008215 -38.318573 -2.0308392 1
11.385211 -35.689491 -0.65329248 1
1.8455297 -13.893212 -1.7140917 4
5.1330061 -16.089094 -1.4715182 5
1.1928904 -8.9877062 -1.7522914 6
3.0592327 -9.5777912 -1.5887778 5
0.85385078 -6.4555535 -1.7342521 6
2.1849248 -6.8162704 -1.6419069 5
1.1278214 -19.546329 4.1506643 23
4.4321299 -18.357084 4.6927533 1
1.3271573 -22.737537 3.19611 17
4.4378166 -18.43693 3.3342142 23
1.3802968 -23.509613 1.6402303 9
4.742362 -19.762114 2.1323807 10
2.7654989 -47.033501 0 79
4.5990429 -19.194633 0.68804353 29
1.3089291 -22.424572 -1.5643888 17
4.5112767 -18.843006 -0.67877078 24
0.74217963 -12.877574 -1.80337 5
3.5912192 -15.001857 -1.6122077 5
0.47962803 -8.4769421 -1.7988734 6
2.2329164 -9.3239098 -1.6843886 5
0.34409261 -6.2545509 -1.7850438 7
1.5878166 -6.6226182 -1.688038 6
2.3373787 -18.008631 4.177763 24
5.695622 -17.829802 4.9990392 27
2.8624613 -22.027027 3.5046034 10
5.5554972 -17.496557 3.5582519 30
4.5587168 -35.087517 3.0925035 22
9.7071848 -30.690323 3.9423454 30
5.6855383 -43.823441 0.77074182 9
14.454476 -45.830929 2.516705 13
nan nan nan 0
nan nan nan 0
1.8005188 -13.92664 -1.7174382 4
5.0910501 -16.15204 -1.4756498 5
1.163394 -9.0064201 -1.7551485 6
3.0332229 -9.6119566 -1.5926931 5
0.83192688 -6.463285 -1.7355454 6
2.1648033 -6.835465 -1.6447145 5
1.1278214 -19.546329 4.1506643 23
4.4321299 -18.357084 4.6927533 1
1.3271573 -22.737537 3.19611 17
4.4378166 -18.43693 3.3342142 23
2.9900751 -51.010609 3.5617473 9
10.294045 -42.886532 4.6319175 1
2.7654989 -47.033501 0 79
4.5990429 -19.194633 0.68804353 29
1.3089291 -22.424572 -1.5643888 17
4.5112767 -18.843006 -0.67877078 24
0.74217963 -12.877574 -1.80337 5
3.5912192 -15.001857 -1.6122077 5
0.47962803 -8.4769421 -1.7988734 6
2.2329164 -9.3239098 -1.6843886 5
0.34409261 -6.2545509 -1.7850438 7
1.5878166 -6.6226182 -1.688038 6
2.3373787 -18.008631 4.177763 24
5.695622 -17.829802 4.9990392 27
2.8624613 -22.027027 3.5046034 10
5.5554972 -17.496557 3.5582519 30
6.2661424 -48.233959 4.2523284 3
9.7071848 -30.690323 3.9423454 30
6.5044179 -50.137089 0.88187003 1
14.454476 -45.830929 2.516705 13
4.978898 -38.42775 -2.0356963 1
11.281607 -35.795765 -0.65451413 1
1.8005188 -13.92664 -1.7174382 4
5.0910501 -16.15204 -1.4756498 5
1.163394 -9.0064201 -1.7551485 6
3.0332229 -9.6119566 -1.5926931 5
0.83192688 -6.463285 -1.7355454 6
2.1648033 -6.835465 -1.6447145 5
1.0517056 -19.467306 4.1330066 23
nan nan nan 0
1.2384213 -22.64337 3.1821926 24
4.344667 -18.345263 3.3146982 27
1.2841481 -23.332731 1.6275315 18
4.6676126 -19.769682 2.1313353 18
2.5803185 -46.811172 0 18
4.5630703 -19.357267 0.69327849 1
1.2322954 -22.531317 -1.5715208 16
4.4708371 -18.981007 -0.683155 22
0.69590402 -12.897513 -1.8057995 5
3.5504677 -15.07542 -1.6187191 5
0.44881117 -8.4835262 -1.7999139 7
2.2026837 -9.3488054 -1.6874274 6
0.32140937 -6.2605696 -1.7864211 7
1.5635328 -6.6283927 -1.688038 5
2.2698355 -18.004992 4.1749554 23
5.6047873 -17.769951 4.9764218 19
2.7922173 -22.120667 3.5178711 23
5.4913321 -17.516802 3.5582519 34
4.427279 -35.081749 3.0905426 20
9.5716953 -30.652273 3.932914 30
5.5355015 -43.92831 0.77222526 9
14.20919 -45.635704 2.5030978 9
nan nan nan 0
9.3524961 -30.061138 -0.54892623 3
1.7519337 -13.952843 -1.7198722 4
5.0481095 -16.222904 -1.4804338 6
1.1325114 -9.0276699 -1.7584816 6
3.0060635 -9.6489372 -1.5969998 5
0.80942768 -6.4758759 -1.7381318 6
2.1411927 -6.8480034 -1.6458375 5
1.0517056 -19.467306 4.1330066 23
nan nan nan 0
1.2384213 -22.64337 3.1821926 24
4.344667 -18.345263 3.3146982 27
2.8103321 -51.153206 3.570967 1
4.6676126 -19.769682 2.1313353 18
2.5803185 -46.811172 0 18
9.9362001 -42.14048 1.5107119 1
1.2283629 -22.53153 -1.5715208 16
4.4708371 -18.981007 -0.683155 22
0.69590402 -12.897513 -1.8057995 5
3.5504618 -15.075421 -1.6187191 5
0.44881117 -8.4835262 -1.7999139 7
2.201052 -9.3491898 -1.6874274 6
0.32140937 -6.2605696 -1.7864211 7
1.5623759 -6.6286654 -1.688038 5
2.2698355 -18.004992 4.1749554 23
5.601686 -17.770927 4.9764218 19
2.7922173 -22.120667 3.5178711 23
5.4882746 -17.517759 3.5582519 34
5.9203677 -46.917374 4.1342325 1
9.5663462 -30.653942 3.932914 30
5.5342517 -43.918388 0.7720508 1
14.201223 -45.638184 2.5030978 9
nan nan nan 0
11.157443 -35.881783 -0.65529954 16
1.7519337 -13.952843 -1.7198722 4
5.0452781 -16.223787 -1.4804338 6
1.1309357 -9.0278673 -1.7584816 6
3.0043793 -9.6494617 -1.5969998 5
0.80829746 -6.476017 -1.7381318 6
2.1411927 -6.8480034 -1.6458375 5
0.98104244 -19.417128 4.1215806 25
4.2674932 -18.246601 4.6565156 20
1.1688323 -22.832987 3.2082877 25
4.2688589 -18.309965 3.3055909 24
1.2062755 -23.406809 1.6324022 18
4.6137791 -19.851242 2.138391 36
2.4077661 -46.642628 0 30
4.4966025 -19.377943 0.69345295 1
1.154137 -22.622856 -1.5776093 16
4.4288306 -19.101151 -0.68692547 27
0.65211874 -12.92459 -1.8092701 5
3.5039973 -15.114367 -1.6215841 5
0.41991216 -8.4996958 -1.8030353 6
2.1700726 -9.3640099 -1.6887298 6
0.30012003 -6.2736568 -1.7898645 7
1.5403259 -6.6388044 -1.6892467 5
2.2410181 -18.290882 4.239531 20
5.3700366 -17.246239 4.8239179 23
2.7212954 -22.181751 3.5260658 25
5.4539595 -17.623549 3.575886 28
nan nan nan 0
9.4490471 -30.653952 3.9286542 28
5.3924575 -44.031719 0.77370876 3
13.972132 -45.460773 2.4906681 18
nan nan nan 0
9.2473936 -30.111938 -0.54923165 6
1.7095239 -14.0106 -1.7262613 4
4.9995942 -16.277006 -1.4836956 6
1.100008 -9.0366325 -1.759434 5
2.9757657 -9.6764069 -1.5997404 5
0.78597713 -6.4811969 -1.7387785 6
2.1194367 -6.8624172 -1.6475221 5
0.98104244 -19.417128 4.1215806 25
4.2674932 -18.246601 4.6565156 20
1.1688323 -22.832987 3.2082877 25
4.2688589 -18.309965 3.3055909 24
1.1836346 -22.965965 1.6016121 1
4.6137791 -19.851242 2.138391 36
2.4077661 -46.642628 0 30
9.7585316 -42.043484 1.5060005 1
1.1580855 -22.622656 -1.5776093 16
4.4288306 -19.101151 -0.68692547 27
0.65211874 -12.92459 -1.8092701 5
3.5040033 -15.114366 -1.6215841 5
0.41991216 -8.4996958 -1.8030353 6
2.1717067 -9.3636312 -1.6887298 6
0.30012003 -6.2736568 -1.7898645 7
1.5414847 -6.6385355 -1.6892467 5
2.2410181 -18.290882 4.239531 20
5.3730469 -17.2453 4.8239179 23
2.7212954 -22.181751 3.5260658 25
5.4570351 -17.622597 3.575886 28
5.7723198 -47.066299 4.1455626 1
9.4543972 -30.652304 3.9286542 28
6.0704513 -49.569519 0.87109315 1
13.980067 -45.45834 2.4906681 18
nan nan nan 0
11.019294 -35.856461 -0.65416509 3
1.7095239 -14.0106 -1.7262613 4
5.0024352 -16.276134 -1.4836956 6
1.1015851 -9.0364399 -1.759434 5
2.9774547 -9.6758881 -1.5997404 5
0.7871083 -6.4810596 -1.7387785 6
2.1194367 -6.8624172 -1.6475221 5
0.91664755 -19.420273 4.1215806 24
4.1911602 -18.192097 4.6390009 25
1.0903969 -22.779861 3.200285 23
4.2114248 -18.338415 3.308193 19
1.1287688 -23.413172 1.6325762 20
4.5340481 -19.805843 2.1318581 24
2.2488673 -46.562962 0 20
4.4256358 -19.363522 0.692406 15
1.0867422 -22.703598 -1.5830021 16
4.3565612 -19.076763 -0.68552256 30
0.61087632 -12.961306 -1.8141292 5
3.4544172 -15.128326 -1.6218445 5
0.39172384 -8.5010414 -1.8030353 7
2.144486 -9.3875818 -1.6917685 5
0.27952465 -6.2794194 -1.7912419 7
1.5210869 -6.6507049 -1.6910599 5
2.2235544 -18.661068 4.32376 1
5.2774177 -17.138397 4.7890229 27
2.6506469 -22.215172 3.529968 22
5.4905663 -17.94095 3.6368899 24
nan nan nan 0
9.3403921 -30.643135 3.9234822 39
nan nan nan 0
13.758079 -45.270359 2.4778457 16
nan nan nan 0
nan nan nan 0
1.667143 -14.05069 -1.7305206 4
4.9679928 -16.35697 -1.4895669 6
1.0736324 -9.0571041 -1.7627672 5
2.950388 -9.7022429 -1.602481 5
0.76674235 -6.4932275 -1.741365 6
2.099519 -6.8787255 -1.6497682 6
0.91664755 -19.420273 4.1215806 24
4.1911602 -18.192097 4.6390009 25
1.0903969 -22.779861 3.200285 23
4.2114248 -18.338415 3.308193 19
1.1287688 -23.413172 1.6325762 20
4.5375042 -19.805054 2.1318581 24
2.2488673 -46.562962 0 20
9.5912094 -41.953831 1.5016381 1
1.0867422 -22.703598 -1.5830021 16
4.3565612 -19.076763 -0.68552256 30
0.61313856 -12.9612 -1.8141292 5
3.4544172 -15.128326 -1.6218445 5
0.39320755 -8.5009727 -1.8030353 7
2.144486 -9.3875818 -1.6917685 5
0.28062063 -6.2793703 -1.7912419 7
1.5210869 -6.6507049 -1.6910599 5
2.2268114 -18.660679 4.32376 1
5.2774177 -17.138397 4.7890229 27
2.6545238 -22.21471 3.529968 22
5.4905663 -17.94095 3.6368899 24
5.6453953 -47.259781 4.1610332 1
9.3403921 -30.643135 3.9234822 39
5.9022646 -49.484104 0.86926067 1
13.758079 -45.270359 2.4778457 16
nan nan nan 0
11.030188 -36.297466 -0.66158241 3
1.6695952 -14.050399 -1.7305206 4
4.9708476 -16.356102 -1.4895669 6
1.0736324 -9.0571041 -1.7627672 5
2.9520814 -9.7017269 -1.602481 5
0.76787567 -6.4930935 -1.741365 6
2.1007195 -6.8783593 -1.6497682 6
0.85416478 -19.545513 4.1475482 20
3.9602005 -17.46847 4.4505658 25
1.0176493 -22.936872 3.2218571 22
4.1669331 -18.439459 3.3238058 15
1.0450373 -23.372122 1.629445 28
4.4180174 -19.597633 2.1078165 8
2.0843081 -46.52557 0 6
4.3519845 -19.352037 0.69144624 28
1.0110079 -22.78698 -1.5885687 17
4.2883 -19.084541 -0.68525952 31
0.56918246 -12.992941 -1.8182939 5
3.4097688 -15.17668 -1.6257513 5
0.3641507 -8.5169516 -1.8061563 7
2.1144061 -9.4070206 -1.6939393 6
0.25899169 -6.2875156 -1.7933078 7
1.501062 -6.6701732 -1.6946862 6
2.2535002 -19.462091 4.5079408 14
5.0958958 -16.757017 4.6772289 27
2.5647414 -22.118364 3.5131884 24
5.4769368 -18.122093 3.669775 21
4.029213 -34.756153 3.0580771 6
9.2026043 -30.573385 3.9104002 41
nan nan nan 0
13.544699 -45.133991 2.4677711 13
nan nan nan 0
nan nan nan 0
1.6250826 -14.095583 -1.7353884 4
4.9208894 -16.397207 -1.4917414 6
1.0425706 -9.0656729 -1.7637194 5
2.9253139 -9.7356167 -1.6063961 5
0.74657899 -6.507731 -1.744598 6
2.0781066 -6.8903141 -1.6508913 6
0.85416478 -19.545513 4.1475482 20
3.9602005 -17.46847 4.4505658 25
1.0176493 -22.936872 3.2218571 22
4.1669331 -18.439459 3.3238058 15
1.0450373 -23.372122 1.629445 28
4.4145966 -19.598406 2.1078165 8
2.0843081 -46.52557 0 6
4.3519845 -19.352037 0.69144624 28
1.0110079 -22.78698 -1.5885687 17
4.2883 -19.084541 -0.68525952 31
0.56691474 -12.99304 -1.8182939 5
3.4097688 -15.17668 -1.6257513 5
0.36266422 -8.5170155 -1.8061563 7
2.1144061 -9.4070206 -1.6939393 6
0.25789431 -6.2875609 -1.7933078 7
1.501062 -6.6701732 -1.6946862 6
3.4511728 -29.858913 6.9202619 1
5.0958958 -16.757017 4.6772289 27
2.5608809 -22.118811 3.5131884 24
5.4769368 -18.122093 3.669775 21
5.4910345 -47.443432 4.1754136 3
9.2026043 -30.573385 3.9104002 41
5.7122502 -49.430908 0.86795175 1
13.538238 -45.112465 2.4665935 13
nan nan nan 0
10.983279 -36.624958 -0.6668182 1
1.6226225 -14.095866 -1.7353884 4
4.9180274 -16.398066 -1.4917414 6
1.0425706 -9.0656729 -1.7637194 5
2.9236147 -9.7361269 -1.6063961 5
0.74544317 -6.5078611 -1.744598 6
2.0769041 -6.8906765 -1.6508913 6
0.78681237 -19.570364 4.1522222 12
3.8606286 -17.309347 4.406477 30
0.94693869 -23.17033 3.2542148 25
4.2110605 -18.941774 3.411845 24
0.96109498 -23.318316 1.6254439 27
4.3628411 -19.688946 2.1159174 1
1.9268324 -46.652458 0 2
4.2849464 -19.369551 0.69153345 14
0.93511051 -22.880079 -1.5948311 15
4.2076292 -19.035965 -0.6829797 27
0.52313304 -13.034522 -1.8238471 5
3.363214 -15.217623 -1.6288767 4
0.33368647 -8.5377779 -1.8103181 7
2.0863452 -9.4359789 -1.6978464 5
0.2362105 -6.2956276 -1.7953739 7
1.4767196 -6.6706352 -1.6934774 5
2.1878467 -19.521059 4.519733 16
5.0179067 -16.709944 4.6591353 27
2.4687924 -21.995102 3.4921162 9
5.4283943 -18.190481 3.6797833 25
3.8893056 -34.659313 3.0482721 20
9.0767298 -30.541101 3.9021854 31
nan nan nan 0
13.313993 -44.934448 2.4542947 18
nan nan nan 0
10.908611 -36.842823 -0.67009056 34
1.5789064 -14.150768 -1.7414732 4
4.8812828 -16.484381 -1.4980477 5
1.010919 -9.0692577 -1.7637194 5
2.8945317 -9.7628422 -1.6091367 5
0.72325367 -6.5152235 -1.7458913 5
2.057713 -6.9142261 -1.654822 6
0.78681237 -19.570364 4.1522222 12
3.8606286 -17.309347 4.406477 30
0.94693869 -23.17033 3.2542148 25
4.2110605 -18.941774 3.411845 24
0.96109498 -23.318316 1.6254439 27
4.3628411 -19.688946 2.1159174 1
2.0085711 -48.635777 0 9
9.1852407 -41.509918 1.483403 1
0.93511051 -22.880079 -1.5948311 15
4.2076292 -19.035965 -0.6829797 27
0.52313304 -13.034522 -1.8238471 5
3.363214 -15.217623 -1.6288767 4
0.33368647 -8.5377779 -1.8103181 7
2.0863452 -9.4359789 -1.6978464 5
0.2362105 -6.2956276 -1.7953739 7
1.4767196 -6.6706352 -1.6934774 5
2.1878467 -19.521059 4.519733 16
5.0179067 -16.709944 4.6591353 27
2.4687924 -21.995102 3.4921162 9
5.4283943 -18.190481 3.6797833 25
4.5738969 -40.762581 3.5855873 1
9.0767298 -30.541101 3.9021854 31
4.9796605 -44.450069 0.78012258 1
13.313993 -44.934448 2.4542947 18
nan nan nan 0
10.908611 -36.842823 -0.67009056 34
1.5789064 -14.150768 -1.7414732 4
4.8812828 -16.484381 -1.4980477 5
1.010919 -9.0692577 -1.7637194 5
2.8945317 -9.7628422 -1.6091367 5
0.72325367 -6.5152235 -1.7458913 5
2.057713 -6.9142261 -1.654822 6
0.71632075 -19.607332 4.1594934 1
3.8028774 -17.349445 4.4131207 26
0.8642984 -23.235498 3.262913 23
4.1274114 -18.892138 3.4001355 21
0.87767142 -23.376509 1.629271 24
nan nan nan 0
1.823452 -48.460438 0 26
9.0187035 -41.477394 1.4810474 20
0.85465801 -22.975563 -1.6012673 16
4.1606445 -19.156244 -0.68675017 28
0.47651815 -13.068517 -1.828359 5
3.3185036 -15.28087 -1.6343464 4
0.30264771 -8.5462742 -1.8118787 7
2.0548856 -9.4579964 -1.700451 5
0.21361238 -6.3108625 -1.7995059 7
1.4553589 -6.6902246 -1.6971037 5
2.1257248 -19.616138 4.539948 5
4.9806623 -16.809261 4.6817527 23
2.3945501 -22.06292 3.5014815 18
5.3478117 -18.163174 3.6702514 23
3.7692294 -34.737713 3.0539374 16
5.6774497 -19.368851 2.4704309 4
nan nan nan 0
5.5381498 -18.955153 1.0331117 4
nan nan nan 0
10.809261 -37.004917 -0.67231572 27
1.5318159 -14.200868 -1.7469496 4
4.8243265 -16.514111 -1.4991349 6
0.97977173 -9.0924225 -1.7675288 5
2.864284 -9.7923412 -1.6122689 5
0.6991123 -6.51543 -1.7452447 6
2.0337331 -6.9263959 -1.6559451 6
nan nan nan 0
3.8028774 -17.349445 4.4131207 26
0.8642984 -23.235498 3.262913 23
4.1274114 -18.892138 3.4001355 21
0.87767142 -23.376509 1.629271 24
nan nan nan 0
1.823452 -48.460438 0 26
9.0187035 -41.477394 1.4810474 20
0.85064799 -22.975714 -1.6012673 16
4.1606445 -19.156244 -0.68675017 28
0.47651815 -13.068517 -1.828359 5
3.3184977 -15.280871 -1.6343464 4
0.30264771 -8.5462742 -1.8118787 7
2.0532348 -9.4583549 -1.700451 5
0.21361238 -6.3108625 -1.7995059 7
1.4541912 -6.6904788 -1.6971037 5
3.223521 -29.754482 6.890501 1
4.9777288 -16.810129 4.6817527 23
2.3945501 -22.06292 3.5014815 18
5.3446417 -18.164108 3.6702514 23
4.4040551 -40.590897 3.5690279 1
9.0103559 -30.749554 3.9243948 1
4.8422728 -44.704113 0.78426749 1
13.083236 -44.786346 2.443435 1
nan nan nan 0
10.802801 -37.006802 -0.67231572 27
1.5318159 -14.200868 -1.7469496 4
4.821444 -16.514954 -1.4991349 6
0.97818482 -9.0925932 -1.7675288 5
2.8625748 -9.792841 -1.6122689 5
0.69797516 -6.5155516 -1.7452447 6
2.0337331 -6.9263959 -1.6559451 6
nan nan nan 0
3.742805 -17.364986 4.4137249 30
nan nan nan 0
4.0666142 -18.930504 3.4044724 26
0.79708004 -23.409342 1.6313585 25
9.4595566 -44.172245 4.7442856 3
1.6507094 -48.361568 0 26
8.8284111 -41.296062 1.4734566 18
0.77277005 -23.048334 -1.6061381 16
4.1021037 -19.209743 -0.68815309 30
0.43146318 -13.087421 -1.8307885 5
3.2661762 -15.297226 -1.6348672 5
0.27304423 -8.5546103 -1.8134394 7
2.0243218 -9.484726 -1.7039241 6
0.19158205 -6.3115702 -1.7995059 7
1.4323511 -6.70263 -1.6989168 5
3.1033957 -29.610489 6.8545632 28
4.9447932 -16.915483 4.7063084 31
2.3280869 -22.171835 3.5174809 16
5.2407842 -18.043615 3.6421325 19
4.1908689 -39.924877 3.5091083 4
5.5953846 -19.351393 2.4655631 16
nan nan nan 0
5.4956231 -19.068876 1.0382144 10
nan nan nan 0
nan nan nan 0
1.4884096 -14.265363 -1.7542514 4
4.780333 -16.589113 -1.5043539 5
0.94694692 -9.1008348 -1.7684811 5
2.8318019 -9.8146353 -1.6142265 5
0.67646855 -6.5299592 -1.7484778 5
2.0109024 -6.9381313 -1.6570681 5
nan nan nan 0
3.742805 -17.364986 4.4137249 30
nan nan nan 0
4.0666142 -18.930504 3.4044724 26
0.79708004 -23.409342 1.6313585 25
9.4595566 -44.172245 4.7442856 3
1.6507094 -48.361568 0 26
8.8284111 -41.296062 1.4734566 18
0.77679271 -23.048197 -1.6061381 16
4.1021037 -19.209743 -0.68815309 30
0.43146318 -13.087421 -1.8307885 5
3.2661824 -15.297225 -1.6348672 5
0.27304423 -8.5546103 -1.8134394 7
2.0259771 -9.4843721 -1.7039241 6
0.19158205 -6.3115702 -1.7995059 7
1.4335208 -6.7023797 -1.6989168 5
3.1033957 -29.610489 6.8545632 28
4.9477453 -16.914621 4.7063084 31
2.3280869 -22.171835 3.5174809 16
5.2439327 -18.0427 3.6421325 19
5.2036772 -49.577309 4.358223 4
8.9621754 -30.965183 3.9481261 1
nan nan nan 0
12.86472 -44.587215 2.4302199 1
nan nan nan 0
nan nan nan 0
1.4884096 -14.265363 -1.7542514 4
4.7832289 -16.58828 -1.5043539 5
0.94853526 -9.1006689 -1.7684811 5
2.8335147 -9.8141403 -1.6142265 5
0.67760819 -6.5298409 -1.7484778 5
2.0109024 -6.9381313 -1.6570681 5
nan nan nan 0
3.6721072 -17.315599 4.3980217 37
0.7473768 -24.606787 3.4549718 17
3.8968468 -18.43803 3.3133972 20
0.72356021 -23.546467 1.6407522 17
9.3437853 -44.349346 4.7599649 9
1.4837242 -48.151878 0 25
8.6579885 -41.166187 1.4677855 20
0.70389658 -23.167809 -1.6143141 16
4.0491714 -19.274588 -0.68999445 27
0.38929525 -13.130849 -1.8366886 5
3.226177 -15.359069 -1.6403368 5
0.24522422 -8.5750227 -1.817601 7
1.9950216 -9.4934473 -1.7043581 5
0.17090441 -6.3217812 -1.8022606 7
1.4122876 -6.7118444 -1.7001256 5
3.0101018 -29.66909 6.8657937 30
4.8815627 -16.896135 4.6966152 22
2.2475622 -22.110645 3.5065546 9
5.310801 -18.501072 3.7312558 22
4.1097922 -40.444016 3.5535574 3
5.5318336 -19.359333 2.4643462 9
nan nan nan 0
5.4315834 -19.071642 1.0374295 14
nan nan nan 0
nan nan nan 0
1.44259 -14.285032 -1.7560768 5
4.7384338 -16.639977 -1.5076158 5
0.92031819 -9.1232996 -1.7722903 5
2.8063791 -9.8424759 -1.6173586 5
0.65595073 -6.532052 -1.7484778 5
1.9898992 -6.9517865 -1.6587526 5
nan nan nan 0
3.6721072 -17.315599 4.3980217 37
0.7473768 -24.606787 3.4549718 17
3.8968468 -18.43803 3.3133972 20
0.72356021 -23.546467 1.6407522 17
9.3515263 -44.347713 4.7599649 9
1.4837242 -48.151878 0 25
8.6579885 -41.166187 1.4677855 20
0.70389658 -23.167809 -1.6143141 16
4.0491714 -19.274588 -0.68999445 27
0.39158702 -13.130781 -1.8366886 5
3.226177 -15.359069 -1.6403368 5
0.24672084 -8.5749798 -1.817601 7
1.9950216 -9.4934473 -1.7043581 5
0.17200775 -6.3217511 -1.8022606 7
1.4122876 -6.7118444 -1.7001256 5
3.01528 -29.668562 6.8657937 30
4.8815627 -16.896135 4.6966152 22
2.2514212 -22.110254 3.5065546 9
5.310801 -18.501072 3.7312558 22
5.0708427 -49.81889 4.3780508 16
8.7959871 -30.772854 3.9198315 6
4.5661402 -44.936672 0.78780156 1
12.667517 -44.456764 2.4207995 1
4.0258193 -39.686211 -2.0956895 1
9.0938101 -31.919498 -0.57872647 1
1.4450833 -14.284781 -1.7560768 5
4.7413383 -16.639151 -1.5076158 5
0.92031819 -9.1232996 -1.7722903 5
2.8080969 -9.8419857 -1.6173586 5
0.65709078 -6.5319371 -1.7484778 5
1.9911125 -6.9514389 -1.6587526 5
nan nan nan 0
3.6160996 -17.349686 4.4034572 40
0.66128021 -24.601824 3.453928 15
3.7773561 -18.186352 3.265691 18
0.63765299 -23.411732 1.6311846 13
9.2284575 -44.533463 4.7764282 18
0.64184463 -23.415939 0 16
8.4849014 -41.054245 1.462725 25
0.62415355 -23.212509 -1.6172714 15
3.9768119 -19.264135 -0.68911761 30
0.34626469 -13.151869 -1.8394651 4
3.1765676 -15.389716 -1.6424203 5
0.21709006 -8.5880117 -1.8202019 8
1.9673539 -9.5268755 -1.7091335 5
0.15010576 -6.3295202 -1.8043265 7
1.3893422 -6.7191091 -1.70073 5
2.9240606 -29.804985 6.8949933 18
4.7834473 -16.776054 4.6584892 27
2.1737454 -22.113062 3.505774 15
5.4235921 -19.145182 3.8575528 22
nan nan nan 0
5.4406343 -19.294939 2.4536979 6
nan nan nan 0
5.3244181 -18.946287 1.029579 9
nan nan nan 0
nan nan nan 0
1.3988241 -14.326784 -1.7606405 4
4.6946988 -16.696356 -1.5113125 5
0.88989049 -9.1411133 -1.7751474 5
2.777076 -9.8636112 -1.6193162 5
0.63568234 -6.5486131 -1.7523575 5
1.9668354 -6.9583464 -1.6587526 5
nan nan nan 0
3.6160996 -17.349686 4.4034572 40
0.66128021 -24.601824 3.453928 15
3.7773561 -18.186352 3.265691 18
0.63765299 -23.411732 1.6311846 13
9.220685 -44.53508 4.7764282 18
1.3196492 -48.304214 0 1
8.4849014 -41.054245 1.462725 25
0.62415355 -23.212509 -1.6172714 15
3.9768119 -19.264135 -0.68911761 30
0.34396926 -13.151929 -1.8394651 4
3.1765676 -15.389716 -1.6424203 5
0.21559116 -8.5880489 -1.8202019 8
1.9673539 -9.5268755 -1.7091335 5
0.14900105 -6.3295465 -1.8043265 7
1.3893422 -6.7191091 -1.70073 5
2.918859 -29.805492 6.8949933 18
4.7834473 -16.776054 4.6584892 27
2.1698859 -22.11344 3.505774 15
5.4235921 -19.145182 3.8575528 22
nan nan nan 0
8.9742813 -31.815941 4.0488296 1
4.2730913 -43.642075 0.764808 1
12.448715 -44.274807 2.4085007 3
3.8949003 -39.849781 -2.1035659 1
8.973382 -31.940582 -0.57850832 13
1.3963236 -14.327028 -1.7606405 4
4.6917849 -16.697174 -1.5113125 5
0.88989049 -9.1411133 -1.7751474 5
2.7753544 -9.8640947 -1.6193162 5
0.63453937 -6.5487237 -1.7523575 5
1.9656208 -6.9586897 -1.6587526 5
nan nan nan 0
3.5505393 -17.353315 4.4010415 39
0.57954615 -24.970385 3.5054221 1
3.7308517 -18.298986 3.2834725 27
0.5510239 -23.379005 1.6287491 17
9.0816603 -44.687954 4.7892327 18
0.5561344 -23.423132 0 10
8.299098 -40.911221 1.4565305 20
0.54119694 -23.306889 -1.6237078 15
3.9002221 -19.249199 -0.68806541 27
0.2965858 -13.190228 -1.8446711 4
3.1324902 -15.462175 -1.6489316 5
0.18442021 -8.6034508 -1.8233232 8
1.9343811 -9.5436726 -1.71087 5
0.12612405 -6.3468695 -1.8091472 7
1.3676054 -6.7384191 -1.7043562 5
1.9096506 -20.259956 4.6825757 2
4.7251992 -16.805099 4.6617203 26
2.0904455 -22.138454 3.5085056 10
5.3864245 -19.283108 3.8813825 28
3.3133242 -35.099365 3.0813913 3
5.3718734 -19.32192 2.4546106 22
nan nan nan 0
5.2576098 -18.975298 1.0301024 24
nan nan nan 0
10.111959 -36.504257 -0.66057891 6
1.3461165 -14.356755 -1.7636828 4
4.63588 -16.733458 -1.5130521 5
0.85752267 -9.1565304 -1.7775282 4
2.7444708 -9.8932323 -1.6224483 5
0.6107564 -6.5534105 -1.7530042 5
1.9446887 -6.9822717 -1.6626832 5
1.1921448 -53.166092 11.286566 1
3.5505393 -17.353315 4.4010415 39
1.2336845 -53.358788 7.4962106 1
3.7308517 -18.298986 3.2834725 27
0.5510239 -23.379005 1.6287491 17
9.0816603 -44.687954 4.7892327 18
1.132525 -47.88134 0 3
8.299098 -40.911221 1.4565305 20
0.54119694 -23.306889 -1.6237078 15
3.9002221 -19.249199 -0.68806541 27
0.2965858 -13.190228 -1.8446711 4
3.1324902 -15.462175 -1.6489316 5
0.18442021 -8.6034508 -1.8233232 8
1.9343811 -9.5436726 -1.71087 5
0.12612405 -6.3468695 -1.8091472 7
1.3676054 -6.7384191 -1.7043562 5
3.104249 -32.944744 7.6193638 1
4.7251992 -16.805099 4.6617203 26
2.0904455 -22.138454 3.5085056 10
5.3864245 -19.283108 3.8813825 28
4.7462244 -50.286148 4.4159636 18
5.3718734 -19.32192 2.4546106 22
4.1201377 -43.732098 0.76611698 1
5.2576098 -18.975298 1.0301024 24
3.7628362 -40.012928 -2.1114426 1
10.111959 -36.504257 -0.66057891 6
1.3461165 -14.356755 -1.7636828 4
4.63588 -16.733458 -1.5130521 5
0.85752267 -9.1565304 -1.7775282 4
2.7444708 -9.8932323 -1.6224483 5
0.6107564 -6.5534105 -1.7530042 5
1.9446887 -6.9822717 -1.6626832 5
nan nan nan 0
3.4851606 -17.34182 4.3950019 29
0.49605733 -25.160368 3.5318649 2
3.7225795 -18.589521 3.3333471 18
0.47159582 -23.490498 1.6364033 22
8.955308 -44.868114 4.8051734 20
0.47406796 -23.409935 0 2
8.1166887 -40.741467 1.4494632 24
0.4627623 -23.458246 -1.6341451 13
3.8378842 -19.287199 -0.68894225 27
0.25100383 -13.215937 -1.8481419 5
3.0867517 -15.514472 -1.6533594 5
0.1544728 -8.6089325 -1.8243637 8
1.904905 -9.569684 -1.7143428 5
0.10393083 -6.3448687 -1.8084587 7
1.3459753 -6.7526679 -1.7067739 5
1.8338596 -20.210695 4.6696606 5
4.6671562 -16.823816 4.6623669 27
2.0194094 -22.214476 3.5194318 9
5.4665561 -19.836466 3.9890931 30
3.2426004 -35.681187 3.131506 23
5.2906008 -19.290304 2.4482214 19
nan nan nan 0
5.2104454 -19.063368 1.0338968 30
nan nan nan 0
10.028638 -36.700874 -0.66350216 2
1.2995578 -14.400908 -1.7685506 4
4.5925555 -16.80479 -1.5180535 5
0.82709438 -9.1765795 -1.7808614 5
2.7118783 -9.9098959 -1.6236229 5
0.58830714 -6.5603127 -1.7542975 6
1.9222449 -6.9960637 -1.6643679 5
1.0083971 -53.267735 11.307341 1
3.4851606 -17.34182 4.3950019 29
1.0517269 -53.583057 7.5271764 1
3.7225795 -18.589521 3.3333471 18
0.47159582 -23.490498 1.6364033 22
8.955308 -44.868114 4.8051734 20
0.96583247 -47.907501 0 4
8.1166887 -40.741467 1.4494632 24
0.4627623 -23.458246 -1.6341451 13
3.8378842 -19.287199 -0.68894225 27
0.25100383 -13.215937 -1.8481419 5
3.0867517 -15.514472 -1.6533594 5
0.1544728 -8.6089325 -1.8243637 8
1.904905 -9.569684 -1.7143428 5
0.10393083 -6.3448687 -1.8084587 7
1.3459753 -6.7526679 -1.7067739 5
1.8338596 -20.210695 4.6696606 5
4.6671562 -16.823816 4.6623669 27
2.0194094 -22.214476 3.5194318 9
5.4665561 -19.836466 3.9890931 30
3.7690947 -41.477589 3.6407132 3
5.2906008 -19.290304 2.4482214 19
3.9819024 -43.905537 0.76890934 1
5.2025404 -19.034473 1.0323267 30
nan nan nan 0
10.641 -38.94083 -0.70403576 18
1.2995578 -14.400908 -1.7685506 4
4.5925555 -16.80479 -1.5180535 5
0.82709438 -9.1765795 -1.7808614 5
2.7118783 -9.9098959 -1.6236229 5
0.58830714 -6.5603127 -1.7542975 6
1.9222449 -6.9960637 -1.6643679 5
nan nan nan 0
3.4219897 -17.324724 4.3877544 32
0.41382536 -25.236135 3.5423031 5
nan nan nan 0
0.39758277 -23.726332 1.652755 23
8.838541 -45.061031 4.8226819 24
nan nan nan 0
7.826932 -39.978642 1.4213692 9
0.38634574 -23.544436 -1.6400597 14
3.779182 -19.326792 -0.68990684 26
0.20755707 -13.241452 -1.8516126 4
3.0443575 -15.570986 -1.658308 5
0.12606198 -8.6191778 -1.8264445 8
1.8755262 -9.5880289 -1.7165136 5
0.083068609 -6.3595972 -1.8125907 7
1.3259103 -6.7689962 -1.7097957 6
4.3028293 -49.261665 11.390019 2
4.6036787 -16.811253 4.6546121 24
1.9493914 -22.262871 3.5260658 12
5.4078379 -19.880531 3.9943354 21
3.1253448 -35.704147 3.1325955 6
5.2285495 -19.31493 2.4491341 6
nan nan nan 0
5.1706295 -19.167313 1.038607 29
nan nan nan 0
9.8821363 -36.642227 -0.66184425 2
1.2535119 -14.424916 -1.7709846 4
4.5419979 -16.839163 -1.5197932 6
0.79792982 -9.193943 -1.7837183 5
2.6841605 -9.9379034 -1.626755 5
0.56799901 -6.5790701 -1.7588238 5
1.9003127 -7.0071015 -1.665491 5
0.83478808 -53.466393 11.348888 1
3.4219897 -17.324724 4.3877544 32
0.87821239 -53.843689 7.5633612 1
nan nan nan 0
0.39758277 -23.726332 1.652755 23
8.8420944 -45.037533 4.8203301 24
0.92038757 -54.679489 0 1
7.826932 -39.978642 1.4213692 9
0.38634574 -23.544436 -1.6400597 14
3.779182 -19.326792 -0.68990684 26
0.20986813 -13.241416 -1.8516126 4
3.0443575 -15.570986 -1.658308 5
0.12756631 -8.6191559 -1.8264445 8
1.8755262 -9.5880289 -1.7165136 5
0.084178567 -6.3595819 -1.8125907 7
1.3259103 -6.7689962 -1.7097957 6
4.3114271 -49.260914 11.390019 2
4.6036787 -16.811253 4.6546121 24
1.9532769 -22.262529 3.5260658 12
5.4078379 -19.880531 3.9943354 21
3.5091443 -40.010563 3.5108511 13
8.3953238 -31.00284 3.9338267 1
3.8557136 -44.052296 0.77126539 1
5.1706295 -19.167313 1.038607 29
nan nan nan 0
11.598279 -42.97274 -0.77633291 9
1.2560295 -14.424697 -1.7709846 4
4.5449371 -16.838367 -1.5197932 6
0.79792982 -9.193943 -1.7837183 5
2.685895 -9.9374352 -1.626755 5
0.56914723 -6.5789709 -1.7588238 5
1.9015356 -7.0067697 -1.665491 5
nan nan nan 0
3.3614941 -17.336563 4.3877544 26
0.32491216 -25.173063 3.5332568 1
3.8076274 -19.709488 3.5298088 1
0.31733894 -23.92458 1.6664976 15
8.7163591 -45.231689 4.8378382 22
nan nan nan 0
7.704782 -40.096508 1.4245974 18
0.30552423 -23.65287 -1.6475397 14
3.7672927 -19.629393 -0.70025367 25
0.16397366 -13.269299 -1.8554304 5
3.0003016 -15.635237 -1.6640381 5
0.097637817 -8.6342192 -1.8295656 8
1.8466933 -9.6186953 -1.7208548 5
0.062022585 -6.3646436 -1.8139681 7
1.304109 -6.7831116 -1.7122133 6
3.0737231 -36.584286 8.4543543 23
4.5512719 -16.850533 4.6610742 24
1.8685142 -22.185549 3.5127981 9
5.330771 -19.870844 3.9886162 19
3.3606896 -39.918339 3.5016997 31
5.1591744 -19.325871 2.4482214 13
nan nan nan 0
5.1081877 -19.202131 1.0395229 24
nan nan nan 0
9.7882204 -36.77866 -0.66372037 3
1.2093844 -14.473505 -1.776461 4
4.5002394 -16.907076 -1.5245773 6
0.76705152 -9.2113466 -1.7865754 5
2.6550126 -9.9610624 -1.6291043 5
0.54637796 -6.5833244 -1.7594705 6
1.8795912 -7.0227757 -1.667737 5
0.65150768 -53.747742 11.408094 1
3.3614941 -17.336563 4.3877544 26
0.69312769 -54.07169 7.5950232 1
3.8076274 -19.709488 3.5298088 1
0.31733894 -23.92458 1.6664976 15
8.706583 -45.22345 4.8367934 22
0.7323004 -54.892349 0 9
7.704782 -40.096508 1.4245974 18
0.30552423 -23.65287 -1.6475397 14
3.7672927 -19.629393 -0.70025367 25
0.16165772 -13.269327 -1.8554304 5
3.0003016 -15.635237 -1.6640381 5
0.09613087 -8.6342363 -1.8295656 8
1.8466933 -9.6186953 -1.7208548 5
0.060911752 -6.3646545 -1.8139681 7
1.304109 -6.7831116 -1.7122133 6
3.067338 -36.584824 8.4543543 23
4.5512719 -16.850533 4.6610742 24
1.8646419 -22.185875 3.5127981 9
5.330771 -19.870844 3.9886162 19
4.2840133 -50.997463 4.4743576 1
8.2274809 -30.809004 3.9055321 1
3.7088392 -44.240498 0.77431959 1
5.1081877 -19.202131 1.0395229 24
nan nan nan 0
11.082059 -41.667068 -0.75198656 9
1.2068584 -14.473716 -1.776461 4
4.4972882 -16.90786 -1.5245773 6
0.76705152 -9.2113466 -1.7865754 5
2.6532741 -9.9615259 -1.6291043 5
0.54522902 -6.5834193 -1.7594705 6
1.8783658 -7.0231037 -1.667737 5
0.46600136 -53.996674 11.460549 18
3.2796319 -17.236185 4.3593688 24
0.23387958 -24.832418 3.4852421 3
3.754405 -19.804903 3.5445542 26
0.23581164 -24.132528 1.680936 8
8.5740604 -45.387932 4.8511662 18
nan nan nan 0
7.6096854 -40.361309 1.4330605 30
0.22392738 -23.758533 -1.654846 13
3.747323 -19.900229 -0.70946056 22
0.11562852 -13.30447 -1.8602893 5
2.9526117 -15.682265 -1.6679449 6
0.066078663 -8.6467447 -1.8321667 9
1.8149318 -9.6347599 -1.7225913 5
0.0387596 -6.3768444 -1.8174114 7
1.2813244 -6.7923899 -1.7134219 6
2.9277222 -36.447178 8.4201012 36
4.4818478 -16.826647 4.6500888 28
1.7786717 -22.086409 3.4960184 9
5.2795925 -19.958132 4.0024376 19
3.1967821 -39.711933 3.4825256 16
5.1264529 -19.475735 2.4649546 17
nan nan nan 0
5.0094314 -19.09911 1.0329809 17
nan nan nan 0
nan nan nan 0
1.1592873 -14.514943 -1.7810245 4
4.443933 -16.945135 -1.5265342 6
0.73645073 -9.2335396 -1.7903847 5
2.6235113 -9.989831 -1.6322362 5
0.52281618 -6.5925045 -1.7614104 6
1.8550844 -7.0343285 -1.6688601 5
0.46600136 -53.996674 11.460549 18
3.2796319 -17.236185 4.3593688 24
0.50703448 -54.360947 7.6353836 1
3.754405 -19.804903 3.5445542 26
0.23581164 -24.132528 1.680936 8
8.5740604 -45.387932 4.8511662 18
0.54163879 -54.992065 0 1
7.6096854 -40.361309 1.4330605 30
0.22392738 -23.758533 -1.654846 13
3.747323 -19.900229 -0.70946056 22
0.11562852 -13.30447 -1.8602893 5
2.9526117 -15.682265 -1.6679449 6
0.066078663 -8.6467447 -1.8321667 9
1.8149318 -9.6347599 -1.7225913 5
0.0387596 -6.3768444 -1.8174114 7
1.2813244 -6.7923899 -1.7134219 6
2.9277222 -36.447178 8.4201012 36
4.4818478 -16.826647 4.6500888 28
1.7786717 -22.086409 3.4960184 9
7.8443084 -29.644651 5.9483714 1
4.1391292 -51.424198 4.5105276 3
8.0718403 -30.65517 3.88241 1
3.5665905 -44.405159 0.77698112 1
5.0094314 -19.09911 1.0329809 17
nan nan nan 0
4.7369146 -18.073915 -0.32553363 1
1.1592873 -14.514943 -1.7810245 4
4.443933 -16.945135 -1.5265342 6
0.73645073 -9.2335396 -1.7903847 5
2.6235113 -9.989831 -1.6322362 5
0.52281618 -6.5925045 -1.7614104 6
1.8550844 -7.0343285 -1.6688601 5
0.2694768 -54.281689 11.520795 18
3.2306762 -17.324402 4.378695 18
0.14348485 -24.944511 3.5008988 5
3.9310627 -21.159563 3.7848189 1
0.14653115 -23.993574 1.6711944 1
6.877635 -37.1558 3.9679005 18
nan nan nan 0
6.7806654 -36.703613 1.3021874 6
0.13737577 -23.853962 -1.6614562 14
3.6766279 -19.926113 -0.70989901 26
0.06696941 -13.327086 -1.8634129 4
2.9032388 -15.736993 -1.6726331 6
0.034420453 -8.6567097 -1.8342475 9
1.7836329 -9.6631365 -1.7264984 5
0.015395427 -6.3817496 -1.8187888 7
1.2595119 -6.8137374 -1.7176527 6
2.7913265 -36.42123 8.4116783 37
4.4146214 -16.821939 4.6442723 27
1.6890143 -21.979521 3.4780681 16
5.2082653 -19.98447 4.0038671 13
1.9825127 -25.802673 2.2610378 10
5.0413218 -19.441551 2.4582613 14
nan nan nan 0
4.937521 -19.110088 1.0325884 23
nan nan nan 0
nan nan nan 0
1.1092794 -14.561156 -1.7861967 4
4.3911495 -16.997477 -1.5297961 6
0.70427471 -9.2582016 -1.7946702 5
2.591835 -10.0185 -1.6353685 5
0.49955735 -6.6064167 -1.7646434 6
1.8305179 -7.0457954 -1.6699833 4
0.26909438 -54.203438 11.504175 1
3.2306762 -17.324402 4.378695 18
0.14348485 -24.944511 3.5008988 5
3.9310627 -21.159563 3.7848189 1
0.30565369 -50.807949 3.5415683 1
8.4343548 -45.563293 4.8665838 1
0.34160635 -55.243679 0 1
7.4621558 -40.391384 1.4331478 13
0.13321248 -23.853985 -1.6614562 14
3.6766279 -19.926113 -0.70989901 26
0.06696941 -13.327086 -1.8634129 4
2.9032326 -15.736994 -1.6726331 6
0.034420453 -8.6567097 -1.8342475 9
1.7819463 -9.6634474 -1.7264984 5
0.015395427 -6.3817496 -1.8187888 7
1.2583227 -6.8139572 -1.7176527 6
2.7913265 -36.42123 8.4116783 37
4.4116855 -16.822708 4.6442723 27
1.6890143 -21.979521 3.4780681 16
7.7019482 -29.565311 5.9264483 1
3.0422494 -39.60667 3.4722848 3
8.1932955 -31.608286 3.9992383 1
3.4164124 -44.582424 0.77986073 1
4.9341855 -19.11095 1.0325884 23
nan nan nan 0
4.6731057 -18.11375 -0.3259263 1
1.1092794 -14.561156 -1.7861967 4
4.3881831 -16.998243 -1.5297961 6
0.70265883 -9.2583237 -1.7946702 5
2.5900865 -10.018952 -1.6353685 5
0.49840432 -6.606504 -1.7646434 6
1.8305179 -7.0457954 -1.6699833 4
0.089735836 -54.451019 11.556629 20
3.1784537 -17.363655 4.3859425 22
0.060692046 -24.912666 3.4963758 1
3.6019089 -19.753124 3.5306761 18
0.065920115 -23.594898 1.6433616 3
6.7548289 -37.180843 3.9681616 55
nan nan nan 0
6.6504421 -36.679188 1.3005297 69
0.054312788 -23.951561 -1.6682407 12
3.6167662 -19.972612 -0.71112663 24
0.022843976 -13.376753 -1.8703543 4
2.8612266 -15.802805 -1.6786233 6
0.0057148635 -8.664113 -1.8358083 8
1.752086 -9.6814165 -1.7286689 5
-0.0057786279 -6.3889756 -1.8208548 7
1.2352866 -6.8157063 -1.7170483 6
2.670712 -36.43272 8.41224 32
4.341949 -16.783476 4.6294103 27
1.6141289 -21.957912 3.4737756 22
4.712502 -18.345875 3.6716814 4
1.8952955 -25.786753 2.2590768 15
4.9869576 -19.511919 2.4649546 1
nan nan nan 0
4.8794169 -19.161077 1.0344201 6
nan nan nan 0
4.7148147 -18.528824 -0.3331255 9
1.0645869 -14.614253 -1.7922815 4
4.3404031 -17.046488 -1.5328405 7
0.67248487 -9.2679472 -1.7960986 5
2.5605149 -10.041841 -1.6377175 5
0.47770515 -6.6249809 -1.7691698 6
1.8101743 -7.0636234 -1.6727908 5
0.089735836 -54.451019 11.556629 20
3.1784537 -17.363655 4.3859425 22
0.060692046 -24.912666 3.4963758 1
3.6019089 -19.753124 3.5306761 18
0.136664 -50.61665 3.5281737 1
6.7548289 -37.180843 3.9681616 55
0.15919174 -55.524506 0 1
6.6504421 -36.679188 1.3005297 69
0.058493122 -23.951551 -1.6682407 12
3.6167662 -19.972612 -0.71112663 24
0.022843976 -13.376753 -1.8703543 4
2.8612325 -15.802804 -1.6786233 6
0.0057148635 -8.664113 -1.8358083 8
1.7537757 -9.6811104 -1.7286689 5
-0.0057786279 -6.3889756 -1.8208548 7
1.2364762 -6.8154902 -1.7170483 6
2.670712 -36.43272 8.41224 32
4.3448782 -16.782715 4.6294103 27
1.6141289 -21.957912 3.4737756 22
7.5900702 -29.515684 5.911674 1
2.8766012 -39.149586 3.4313216 4
8.0447197 -31.441557 3.9748988 1
3.2804241 -44.755554 0.78269678 1
11.138036 -43.682758 2.360744 1
2.9992795 -41.016159 -2.1606712 1
nan nan nan 0
1.0645869 -14.614253 -1.7922815 4
4.3433781 -17.045731 -1.5328405 7
0.67410237 -9.2678289 -1.7960986 5
2.5622673 -10.041393 -1.6377175 5
0.47886142 -6.624898 -1.7691698 6
1.8101743 -7.0636234 -1.6727908 5
-0.10077085 -54.678429 11.604929 20
3.1191103 -17.381807 4.3877544 17
nan nan nan 0
3.5316355 -19.758305 3.5293751 35
nan nan nan 0
6.5072775 -36.543297 3.8976049 18
nan nan nan 0
6.5210557 -36.694794 1.3002679 41
-0.025232574 -24.048872 -1.6750249 10
3.571491 -20.122873 -0.71603698 21
-0.023854926 -13.379225 -1.8707013 4
2.8121395 -15.846969 -1.6822697 6
-0.024577219 -8.678751 -1.8389294 12
1.7225571 -9.7017164 -1.7312735 6
-0.028104609 -6.393723 -1.8222321 7
1.215656 -6.836482 -1.721279 6
2.539623 -36.385921 8.3993254 35
4.2761078 -16.758003 4.6184249 30
1.5448786 -22.069336 3.4905553 18
4.634747 -18.294794 3.6583364 7
1.8066611 -25.813084 2.2608199 16
4.9137278 -19.494663 2.4606953 9
nan nan nan 0
10.944101 -43.556732 2.3518469 6
nan nan nan 0
4.684401 -18.667997 -0.33535069 30
1.0159663 -14.652537 -1.7965409 5
4.2917433 -17.092188 -1.5356673 6
0.64310002 -9.2897129 -1.799908 5
2.5332329 -10.07422 -1.6416328 5
0.45639372 -6.6361666 -1.7717564 6
1.7849087 -7.0675378 -1.6722293 5
-0.10077085 -54.678429 11.604929 20
3.1191103 -17.381807 4.3877544 17
-0.062990375 -54.969814 7.7206268 1
3.5316355 -19.758305 3.5293751 35
-0.040152486 -50.766457 3.5386112 9
8.1732931 -45.896248 4.8961134 1
-0.034774262 -55.737225 0 1
6.5210557 -36.694794 1.3002679 41
-0.025232574 -24.048872 -1.6750249 10
3.571491 -20.122873 -0.71603698 21
-0.023854926 -13.379225 -1.8707013 4
2.8121395 -15.846969 -1.6822697 6
-0.024577219 -8.678751 -1.8389294 12
1.7225571 -9.7017164 -1.7312735 6
-0.028104609 -6.393723 -1.8222321 7
1.215656 -6.836482 -1.721279 6
2.539623 -36.385921 8.3993254 35
4.2761078 -16.758003 4.6184249 30
1.5448786 -22.069336 3.4905553 18
4.634747 -18.294794 3.6583364 7
2.7237694 -38.928341 3.4110579 4
7.9986591 -31.722078 4.006844 1
3.134788 -44.918839 0.78535825 1
10.944101 -43.556732 2.3518469 6
2.8656187 -41.163361 -2.1678913 1
4.684401 -18.667997 -0.33535069 30
1.0159663 -14.652537 -1.7965409 5
4.2917433 -17.092188 -1.5356673 6
0.64310002 -9.2897129 -1.799908 5
2.5332329 -10.07422 -1.6416328 5
0.45639372 -6.6361666 -1.7717564 6
1.7849087 -7.0675378 -1.6722293 5
-0.29287729 -54.907612 11.653749 20
3.0622013 -17.414093 4.3931899 21
-0.1137562 -25.023886 3.5120327 1
3.4605198 -19.758389 3.5272069 36
-0.10469063 -24.943991 1.7374716 4
8.0352631 -46.051861 4.9097018 20
nan nan nan 0
6.9888225 -40.138714 1.4215436 13
-0.10954297 -24.12595 -1.6804175 10
3.4999425 -20.127836 -0.71577388 23
-0.070833541 -13.428576 -1.8776428 5
2.7653306 -15.905683 -1.6874789 5
-0.054888207 -8.6810579 -1.8394496 13
1.6920609 -9.7270756 -1.7347466 5
-0.050463803 -6.3983927 -1.8236095 7
1.1926191 -6.8454638 -1.7224878 6
1.3530388 -20.399944 4.7044754 4
4.2270184 -16.810297 4.6287637 30
1.4699603 -22.106625 3.4956281 17
4.5732379 -18.320381 3.6602428 6
1.5638703 -23.520599 2.0592723 6
4.8570228 -19.557453 2.4664757 8
nan nan nan 0
10.751781 -43.432301 2.3430808 16
nan nan nan 0
4.6023955 -18.616297 -0.33412904 28
0.96953231 -14.727801 -1.8053639 5
4.2458253 -17.162666 -1.5406688 6
0.6111505 -9.2992487 -1.8013365 5
2.5040002 -10.106964 -1.6455479 5
0.43432316 -6.6545882 -1.7762828 6
1.7649456 -7.0926342 -1.6767215 6
-0.29287729 -54.907612 11.653749 20
3.0622013 -17.414093 4.3931899 21
-0.25592041 -55.19207 7.7519407 34
3.4605198 -19.758389 3.5272069 36
-0.23567423 -54.963272 3.8313789 18
8.0352631 -46.051861 4.9097018 20
-0.2303281 -55.974262 0 1
6.9888225 -40.138714 1.4215436 13
-0.10954297 -24.12595 -1.6804175 10
3.4999425 -20.127836 -0.71577388 23
-0.070833541 -13.428576 -1.8776428 5
2.7653306 -15.905683 -1.6874789 5
-0.054888207 -8.6810579 -1.8394496 13
1.6920609 -9.7270756 -1.7347466 5
-0.050463803 -6.3983927 -1.8236095 7
1.1926191 -6.8454638 -1.7224878 6
2.4137242 -36.411583 8.4032555 13
4.2270184 -16.810297 4.6287637 30
1.4699603 -22.106625 3.4956281 17
4.5732379 -18.320381 3.6602428 6
2.5954599 -39.051918 3.4210808 22
7.8878789 -31.749807 4.006844 1
2.9880514 -45.08165 0.78801978 1
10.751781 -43.432301 2.3430808 16
2.7306373 -41.305141 -2.174849 1
4.6023955 -18.616297 -0.33412904 28
0.96953231 -14.727801 -1.8053639 5
4.2458253 -17.162666 -1.5406688 6
0.6111505 -9.2992487 -1.8013365 5
2.5040002 -10.106964 -1.6455479 5
0.43432316 -6.6545882 -1.7762828 6
1.7649456 -7.0926342 -1.6767215 6
-0.49660748 -55.180054 11.711916 28
2.9855931 -17.351084 4.3744674 22
-0.4580625 -55.173428 7.7495055 36
3.3964005 -19.819473 3.5358806 34
-0.19631445 -24.968378 1.7392112 188
6.2970896 -36.890381 3.9297473 23
nan nan nan 0
6.865582 -40.304451 1.4265169 26
-0.19890842 -24.23761 -1.6882455 12
3.4248891 -20.133137 -0.71551085 26
-0.12025736 -13.450507 -1.8807664 5
2.714107 -15.957378 -1.6919066 6
-0.086756729 -8.6856899 -1.8404901 16
1.6576387 -9.7404928 -1.7360489 6
-0.073914744 -6.3981647 -1.8236095 7
1.1703794 -6.866528 -1.7267184 6
1.2784122 -20.407198 4.7050371 14
4.1659575 -16.828022 4.6294103 39
1.3915542 -22.153763 3.5022621 19
4.5160265 -18.377539 3.6683452 4
1.4793679 -23.553514 2.0616691 21
4.8112597 -19.681177 2.4798622 12
nan nan nan 0
10.542853 -43.267666 2.3320901 18
nan nan nan 0
4.5595703 -18.737469 -0.33600515 21
0.9180041 -14.770883 -1.8102317 5
4.1929202 -17.219248 -1.5443655 7
0.57797217 -9.316124 -1.8041935 5
2.4710417 -10.132865 -1.6482885 5
0.41052136 -6.6657772 -1.7788693 7
1.7406813 -7.106153 -1.6784061 6
-0.49660748 -55.180054 11.711916 28
2.9855931 -17.351084 4.3744674 22
-0.4580625 -55.173428 7.7495055 36
3.3964005 -19.819473 3.5358806 34
-0.19631445 -24.968378 1.7392112 188
7.9086881 -46.328537 4.9360952 1
-0.43754411 -56.235535 0 1
6.865582 -40.304451 1.4265169 26
-0.20313869 -24.237574 -1.6882455 12
3.4248891 -20.133137 -0.71551085 26
-0.12025736 -13.450507 -1.8807664 5
2.7141011 -15.957379 -1.6919066 6
-0.086756729 -8.6856899 -1.8404901 16
1.6559385 -9.7407808 -1.7360489 6
-0.073914744 -6.3981647 -1.8236095 7
1.1691809 -6.8667321 -1.7267184 6
2.3739567 -37.917904 8.749156 3
4.1630211 -16.828749 4.6294103 39
1.3915542 -22.153763 3.5022621 19
5.0757852 -20.668587 4.1263523 7
2.4652536 -39.267475 3.4391656 1
4.8078246 -19.682016 2.4798622 12
2.830759 -45.219528 0.79024494 1
10.535301 -43.269505 2.3320901 18
2.5927525 -41.531643 -2.18627 1
4.5563002 -18.738262 -0.33600515 21
0.9180041 -14.770883 -1.8102317 5
4.1899147 -17.21998 -1.5443655 7
0.57634616 -9.3162231 -1.8041935 5
2.4692733 -10.133296 -1.6482885 5
0.40935796 -6.6658483 -1.7788693 7
1.7406813 -7.106153 -1.6784061 6
-0.69170791 -55.376049 11.753983 59
2.8887098 -17.146105 4.3201113 26
-0.64871174 -55.00811 7.726542 34
3.3549159 -19.996319 3.5653715 32
-0.28280845 -24.910187 1.7352102 254
6.1809878 -36.988163 3.9378486 16
-0.27774054 -24.845682 0 9
6.7207408 -40.303524 1.4256444 30
-0.28888363 -24.33148 -1.6948559 12
3.3545904 -20.144972 -0.71551085 21
-0.16764927 -13.484664 -1.8856252 5
2.6645129 -16.003546 -1.6958134 5
-0.11721146 -8.6951132 -1.8425708 10
1.6243547 -9.7610741 -1.7386537 6
-0.096474551 -6.4122853 -1.8277415 7
1.1444054 -6.8659859 -1.7255096 6
1.2076011 -20.418831 4.7067218 3
4.1168447 -16.894796 4.6436267 30
nan nan nan 0
4.4411306 -18.362955 3.6621494 15
1.3980255 -23.573454 2.0629764 26
4.5770049 -19.025606 2.3949795 23
nan nan nan 0
10.346926 -43.150646 2.3237164 22
nan nan nan 0
4.4442496 -18.559593 -0.33251464 28
0.86687344 -14.781427 -1.8111444 5
4.1425619 -17.287779 -1.5491496 7
0.54410809 -9.3230791 -1.8051459 5
2.4408131 -10.170662 -1.6529866 5
0.38664335 -6.6768804 -1.7814558 7
1.7158655 -7.112186 -1.6784061 5
-0.69170791 -55.376049 11.753983 59
2.8887098 -17.146105 4.3201113 26
-0.64871174 -55.00811 7.726542 34
3.3549159 -19.996319 3.5653715 32
-0.28280845 -24.910187 1.7352102 254
7.7756176 -46.527523 4.9543877 2
-0.63381165 -56.231159 0 2
6.7207408 -40.303524 1.4256444 30
-0.28463697 -24.33153 -1.6948559 12
3.3545904 -20.144972 -0.71551085 21
-0.16764927 -13.484664 -1.8856252 5
2.6645188 -16.003544 -1.6958134 5
-0.11721146 -8.6951132 -1.8425708 10
1.6260583 -9.7607908 -1.7386537 6
-0.096474551 -6.4122853 -1.8277415 7
1.1456037 -6.8657861 -1.7255096 6
3.0525117 -51.656372 11.919538 3
4.1197934 -16.894075 4.6436267 30
nan nan nan 0
4.9696536 -20.530272 4.0953736 1
1.3980255 -23.573454 2.0629764 26
4.5803251 -19.024807 2.3949795 23
2.6843913 -45.423767 0.79364812 1
10.354457 -43.148842 2.3237164 22
2.0713339 -35.147869 -1.8495471 1
4.4474888 -18.558819 -0.33251464 28
0.86687344 -14.781427 -1.8111444 5
4.1455784 -17.287056 -1.5491496 7
0.5457353 -9.3229837 -1.8051459 5
2.4425881 -10.170236 -1.6529866 5
0.38780868 -6.6768126 -1.7814558 7
1.7158655 -7.112186 -1.6784061 5
-0.87308514 -55.231632 11.723861 34
2.8342073 -17.16995 4.3237348 22
-0.8285656 -54.837334 7.7028828 31
3.2801962 -19.956316 3.5562639 31
-0.36493105 -24.876692 1.7329488 255
7.6309276 -46.611935 4.9606595 4
-0.36038685 -24.862123 0 3
6.5080838 -39.8423 1.4085437 25
-0.36668494 -24.420225 -1.7011184 13
3.3127222 -20.308867 -0.72094738 14
-0.21280238 -13.511265 -1.889443 5
2.6202462 -16.066278 -1.7015435 6
-0.14634058 -8.7117901 -1.8462123 12
1.5948726 -9.7734184 -1.739956 6
-0.11796651 -6.423945 -1.831185 7
1.1247896 -6.8815165 -1.7285315 6
1.1297157 -20.240297 4.664607 8
4.0609226 -16.895905 4.6403956 32
1.3035839 -23.286991 3.6802044 10
4.8639255 -20.389093 4.0639181 25
1.3134503 -23.463573 2.0529535 14
4.470767 -18.844334 2.3703358 25
nan nan nan 0
10.16016 -42.966713 2.3120716 20
nan nan nan 0
4.4002967 -18.634279 -0.33360544 27
0.82072413 -14.836251 -1.8175334 5
4.0985508 -17.344334 -1.5530638 6
0.51562524 -9.3394451 -1.8080028 5
2.4128373 -10.195098 -1.6557274 5
0.36579689 -6.6804733 -1.7821023 7
1.6962261 -7.1344252 -1.6823368 5
-0.87308514 -55.231632 11.723861 34
2.8342073 -17.16995 4.3237348 22
-0.8285656 -54.837334 7.7028828 31
3.2801962 -19.956316 3.5562639 31
-0.36493105 -24.876692 1.7329488 255
7.6390634 -46.610607 4.9606595 4
-0.8180418 -56.076267 0 30
6.5080838 -39.8423 1.4085437 25
-0.36668494 -24.420225 -1.7011184 13
3.3127222 -20.308867 -0.72094738 14
-0.21044423 -13.511302 -1.889443 5
2.6202462 -16.066278 -1.7015435 6
-0.14482009 -8.7118158 -1.8462123 12
1.5948726 -9.7734184 -1.739956 6
-0.11684532 -6.4239655 -1.831185 7
1.1247896 -6.8815165 -1.7285315 6
2.0946836 -37.436619 8.6346045 1
4.0609226 -16.895905 4.6403956 32
1.3076482 -23.286764 3.6802044 10
4.8639255 -20.389093 4.0639181 25
1.3175455 -23.463346 2.0529535 14
4.470767 -18.844334 2.3703358 25
2.5521402 -45.619152 0.79692048 1
10.161884 -42.973999 2.312464 20
2.156095 -38.656422 -2.0339899 1
4.403543 -18.633511 -0.33360544 27
0.82331359 -14.836107 -1.8175334 5
4.1015778 -17.343618 -1.5530638 6
0.51562524 -9.3394451 -1.8080028 5
2.4146166 -10.194677 -1.6557274 5
0.36696282 -6.6804094 -1.7821023 7
1.6974713 -7.134129 -1.6823368 5
-1.0628422 -55.071766 11.690622 34
2.7796741 -17.213266 4.33219 25
-1.0175747 -54.705395 7.6847901 34
3.2136445 -19.987091 3.5597336 28
-0.45121631 -24.845346 1.7308613 255
5.8276758 -36.355682 3.8662465 6
-0.44762343 -24.885708 0 6
