# .PCD v0.7 - Point Cloud Data file format
VERSION 0.7
FIELDS x y z intensity
SIZE 4 4 4 4
TYPE F F F F
COUNT 1 1 1 1
WIDTH 1472
HEIGHT 1
VIEWPOINT 0 0 0 1 0 0 0
POINTS 1472
DATA ascii
63.843723 53.739708 8.7673254 4
17.450403 10.059477 0 5
9.5950756 5.5266585 -0.76993042 4
11.731008 9.8617764 -0.53663313 5
6.5610628 3.7730138 -1.0561306 5
7.1300936 5.9929247 -0.97201282 5
4.984869 2.8597052 -1.215202 5
5.1094131 4.295269 -1.1708237 5
4.084178 2.3344755 -1.3380942 6
3.9958637 3.3609271 -1.292168 5
19.982851 19.507574 7.4630175 26
44.195232 29.800821 8.4179163 63
20.831255 20.265257 5.6371555 22
20.969217 14.135238 0.44080412 7
21.637348 20.961737 1.5770131 9
10.438366 7.0347843 -0.66005558 4
13.792983 13.355353 -0.33452168 6
6.8763652 4.6314139 -1.0122086 4
7.5004706 7.2621307 -0.90852708 4
5.1020031 3.4355564 -1.186606 5
5.1711826 5.0101094 -1.1361836 15
4.0925603 2.7531168 -1.3113583 5
3.990844 3.8744824 -1.2741061 5
61.91573 35.579227 15.158339 3
40.322487 23.210005 6.5338283 29
63.843723 53.739708 8.7673254 4
17.450403 10.059477 0 5
9.5950756 5.5266585 -0.76993042 4
11.731008 9.8617764 -0.53663313 5
6.5610628 3.7730138 -1.0561306 5
7.1300936 5.9929247 -0.97201282 5
4.984869 2.8597052 -1.215202 5
5.1094131 4.295269 -1.1708237 5
4.084178 2.3344755 -1.3380942 6
3.9958637 3.3609271 -1.292168 5
19.982851 19.507574 7.4630175 26
44.195232 29.800821 8.4179163 63
20.831255 20.265257 5.6371555 22
20.969217 14.135238 0.44080412 7
21.637348 20.961737 1.5770131 9
10.438366 7.0347843 -0.66005558 4
13.792983 13.355353 -0.33452168 6
6.8763652 4.6314139 -1.0122086 4
7.5004706 7.2621307 -0.90852708 4
5.1020031 3.4355564 -1.186606 5
5.1711826 5.0101094 -1.1361836 15
4.0925603 2.7531168 -1.3113583 5
3.990844 3.8744824 -1.2741061 5
26.525909 15.128819 6.4778824 45
40.46373 23.112995 6.5442667 6
64.111221 53.602657 8.7796068 1
17.527071 10.026372 0 5
9.6068535 5.4910994 -0.76940858 4
11.736798 9.8003969 -0.53540552 5
6.5756893 3.7524619 -1.0564777 5
7.146111 5.9660602 -0.97149187 5
5.0007029 2.8467834 -1.2167627 5
5.131186 4.2846165 -1.1725602 5
4.1002631 2.325654 -1.3408488 5
4.0069871 3.3476579 -1.292168 5
20.092501 19.484924 7.4798188 24
44.281498 29.645855 8.415575 45
20.87364 20.172184 5.6304832 30
43.956516 29.428291 4.6249194 13
20.96612 14.03226 0.43975699 6
21.649183 20.834463 1.5728263 25
10.428436 6.977921 -0.65795517 4
13.835394 13.307806 -0.33447805 6
6.8834333 4.6030698 -1.0109916 5
7.5245113 7.2372179 -0.90852708 4
5.1052051 3.4131649 -1.1847013 4
5.1913247 4.9963608 -1.1369667 13
4.1076937 2.7435522 -1.3132982 5
3.9966624 3.8544569 -1.2718601 5
26.525909 15.128819 6.4778824 45
67.205109 38.384579 10.872201 4
64.101875 53.613842 8.7796068 1
17.527071 10.026372 0 5
9.6068535 5.4910994 -0.76940858 4
11.736798 9.8003969 -0.53540552 5
6.5750346 3.7536094 -1.0564777 5
7.146111 5.9660602 -0.97149187 5
5.0002055 2.8476565 -1.2167627 5
5.131186 4.2846165 -1.1725602 5
4.0998569 2.3263698 -1.3408488 5
4.0069871 3.3476579 -1.292168 5
20.092501 19.484924 7.4798188 24
44.276321 29.653584 8.415575 45
20.87364 20.172184 5.6304832 30
20.963671 14.035918 0.43975699 6
21.649183 20.834463 1.5728263 25
10.427217 6.9797411 -0.65795517 4
13.833076 13.310215 -0.33447805 6
6.8826303 4.6042714 -1.0109916 5
7.5232487 7.2385316 -0.90852708 4
5.1052051 3.4131649 -1.1847013 4
5.1904526 4.9972663 -1.1369667 13
4.1072145 2.7442694 -1.3132982 5
3.9959893 3.8551543 -1.2718601 5
26.610487 15.054191 6.4856725 45
67.416245 38.193687 10.884727 1
62.027836 51.512142 8.4707251 20
17.52717 9.9453964 0 5
9.6172829 5.4526143 -0.7687127 4
11.759398 9.7497988 -0.53487945 5
6.577322 3.7245417 -1.0547423 5
7.1573238 5.9331431 -0.97018963 5
5.0037255 2.8265817 -1.215202 5
5.1366363 4.2588186 -1.1703895 5
4.1058574 2.3108675 -1.3401601 5
4.014915 3.3305511 -1.2909591 5
20.228222 19.480013 7.5050206 21
21.023596 20.17568 5.6519299 29
44.078751 29.298906 4.6275339 4
21.00629 13.958506 0.43962607 6
21.71456 20.751867 1.5723029 26
10.457757 6.9474444 -0.65834898 4
13.872225 13.25494 -0.33430353 6
6.8945251 4.5774741 -1.0103831 4
7.5376697 7.2018986 -0.90722233 4
5.1191339 3.3966796 -1.1851776 5
5.2025137 4.9739957 -1.1357921 10
4.1127424 2.7272475 -1.3120049 5
4.0164528 3.8479292 -1.2741061 5
26.610487 15.054191 6.4856725 45
62.036819 51.501316 8.4707251 20
17.52717 9.9453964 0 5
9.6172829 5.4526143 -0.7687127 4
11.759398 9.7497988 -0.53487945 5
6.5779715 3.7233937 -1.0547423 5
7.1573238 5.9331431 -0.97018963 5
5.0042191 2.8257082 -1.215202 5
5.1366363 4.2588186 -1.1703895 5
4.1062603 2.3101509 -1.3401601 5
4.014915 3.3305511 -1.2909591 5
20.228222 19.480013 7.5050206 21
21.023596 20.17568 5.6519299 29
21.008728 13.95484 0.43962607 6
21.71456 20.751867 1.5723029 26
10.458969 6.9456196 -0.65834898 4
13.874535 13.252522 -0.33430353 6
6.8953242 4.5762706 -1.0103831 4
7.5389261 7.200583 -0.90722233 4
5.1191339 3.3966796 -1.1851776 5
5.203382 4.9730878 -1.1357921 10
4.1132183 2.7265298 -1.3120049 5
4.0171242 3.8472281 -1.2741061 5
26.720943 14.987655 6.499176 41
68.78614 38.637348 11.083048 6
17.567862 9.8835402 0 5
9.6306791 5.4136653 -0.76819086 5
11.771906 9.6875792 -0.53382719 4
6.5850949 3.6956277 -1.0537012 5
7.1790218 5.9068704 -0.97018963 5
5.0124078 2.806155 -1.2146819 5
5.1522112 4.2399631 -1.1703895 5
4.1146998 2.2950852 -1.3401601 5
4.0270948 3.3158135 -1.2909591 5
20.542099 19.637749 7.5948434 14
43.195648 28.473433 8.1701241 18
21.084967 20.086637 5.6485939 28
20.995028 13.835112 0.43827352 6
21.78685 20.668701 1.5720412 26
10.478102 6.9031186 -0.65795517 4
13.830528 13.113846 -0.33207834 5
6.9058323 4.546875 -1.0094703 4
7.5598474 7.1677599 -0.90657002 4
5.1253982 3.3738477 -1.183749 5
5.2233639 4.9556832 -1.1361836 3
4.1272206 2.7140882 -1.3132982 5
4.0259056 3.8274393 -1.2724216 5
26.720943 14.987655 6.499176 41
68.78614 38.637348 11.083048 6
66.738541 37.517982 5.3378372 1
17.567862 9.8835402 0 5
9.6316233 5.411984 -0.76819086 5
11.771906 9.6875792 -0.53382719 4
6.5850949 3.6956277 -1.0537012 5
7.1790257 5.9068651 -0.97018963 5
5.0124078 2.806155 -1.2146819 5
5.1529508 4.2390642 -1.1703895 5
4.1146998 2.2950852 -1.3401601 5
4.0276737 3.3151107 -1.2909591 5
20.545525 19.634165 7.5948434 14
43.195648 28.473433 8.1701241 18
21.088472 20.082956 5.6485939 28
20.995028 13.835112 0.43827352 6
21.790459 20.664898 1.5720412 26
10.478102 6.9031186 -0.65795517 4
13.832817 13.111432 -0.33207834 5
6.9058323 4.546875 -1.0094703 4
7.5610986 7.1664405 -0.90657002 4
5.1259866 3.3729529 -1.183749 5
5.2242289 4.954771 -1.1361836 3
4.1276946 2.7133679 -1.3132982 5
4.0259056 3.8274393 -1.2724216 5
26.81798 14.91925 6.5100822 45
63.693214 35.485096 10.242096 6
60.327465 49.35725 8.1887598 4
17.576052 9.8075428 0 5
9.643919 5.3746905 -0.76766896 4
11.790174 9.6337786 -0.53312576 4
6.6087751 3.6786335 -1.0554365 5
7.2034502 5.8849163 -0.97071058 5
5.0285883 2.7921977 -1.2162424 5
5.1600919 4.2148194 -1.1686531 5
4.1142702 2.2760625 -1.3374054 6
4.0429769 3.3041029 -1.292168 5
20.599922 19.549025 7.5896735 23
43.375374 28.3752 8.1853428 18
21.267199 20.112099 5.6776662 24
21.018085 13.745325 0.43774995 7
21.851555 20.578438 1.5712562 25
10.495865 6.8624039 -0.65756136 4
13.825727 13.01337 -0.33081302 5
6.923739 4.5240984 -1.0097746 4
7.5733781 7.1280494 -0.90504783 4
5.1459503 3.360405 -1.1856537 5
5.2379003 4.9331179 -1.1354007 4
4.1310716 2.6949866 -1.3113583 5
4.0410118 3.8150365 -1.2729832 5
26.81798 14.91925 6.5100822 45
68.927078 38.40062 11.084093 4
66.17205 36.896183 5.2821712 1
60.327465 49.35725 8.1887598 4
17.576052 9.8075428 0 5
9.6429806 5.3763733 -0.76766896 4
11.790174 9.6337786 -0.53312576 4
6.6087751 3.6786335 -1.0554365 5
7.2034469 5.8849216 -0.97071058 5
5.0285883 2.7921977 -1.2162424 5
5.1593561 4.2157197 -1.1686531 5
4.1142702 2.2760625 -1.3374054 6
4.0423999 3.3048084 -1.292168 5
20.596512 19.55262 7.5896735 23
43.375374 28.3752 8.1853428 18
21.263687 20.11581 5.6776662 24
21.018085 13.745325 0.43774995 7
21.847961 20.582253 1.5712562 25
10.495865 6.8624039 -0.65756136 4
13.823455 13.015784 -0.33081302 5
6.923739 4.5240984 -1.0097746 4
7.572134 7.1293712 -0.90504783 4
5.1453638 3.3613029 -1.1856537 5
5.2370386 4.9340315 -1.1354007 4
4.1306005 2.6957076 -1.3113583 5
4.0410118 3.8150365 -1.2729832 5
26.916548 14.857409 6.522027 41
63.372868 35.03178 10.171813 26
35.514824 19.65044 2.8286972 2
60.307518 49.007969 8.1639347 9
17.621605 9.7564688 0 5
9.66294 5.3455734 -0.76784295 5
11.806538 9.5820303 -0.53242427 5
6.6122656 3.6519148 -1.0540482 5
7.2132702 5.8531656 -0.96940821 5
5.0356779 2.7743285 -1.2157222 5
5.1771302 4.2016916 -1.1695213 5
4.1239033 2.2635608 -1.3380942 8
4.0552192 3.2929151 -1.2927724 5
20.757856 19.575357 7.6252151 18
43.463017 28.227173 8.1841717 32
21.872078 20.554506 5.8220739 27
21.025816 13.651054 0.4369646 6
21.912451 20.506277 1.5709945 25
10.516469 6.826201 -0.65743005 4
13.813612 12.920341 -0.32954773 5
6.9387035 4.5011129 -1.0097746 5
7.5866437 7.0957122 -0.90396053 4
5.1503038 3.3402171 -1.1842252 4
5.2497683 4.9132614 -1.1346176 5
4.1435719 2.6846199 -1.3126516 5
4.0465379 3.7949433 -1.2707371 5
26.916548 14.857409 6.522027 41
63.372868 35.03178 10.171813 26
65.890312 36.453217 5.249989 1
60.307518 49.007969 8.1639347 9
17.621605 9.7564688 0 5
9.66294 5.3455734 -0.76784295 5
11.806538 9.5820303 -0.53242427 5
6.6122656 3.6519148 -1.0540482 5
7.2132702 5.8531656 -0.96940821 5
5.0356779 2.7743285 -1.2157222 5
5.1771302 4.2016916 -1.1695213 5
4.1239033 2.2635608 -1.3380942 8
4.0552192 3.2929151 -1.2927724 5
20.757856 19.575357 7.6252151 18
43.463017 28.227173 8.1841717 32
21.872078 20.554506 5.8220739 27
21.025816 13.651054 0.4369646 6
21.912451 20.506277 1.5709945 25
10.516469 6.826201 -0.65743005 4
13.813612 12.920341 -0.32954773 5
6.9387035 4.5011129 -1.0097746 5
7.5866437 7.0957122 -0.90396053 4
5.1503038 3.3402171 -1.1842252 4
5.2497683 4.9132614 -1.1346176 5
4.1435719 2.6846199 -1.3126516 5
4.0465379 3.7949433 -1.2707371 5
27.01759 14.790364 6.5339723 169
63.566399 34.849621 10.183295 40
35.449825 19.453176 2.8180859 9
55.855621 45.067184 7.539638 9
17.616104 9.6732473 0 5
9.6684179 5.3046179 -0.76679921 4
11.820462 9.5250807 -0.53154743 4
6.6249728 3.6288116 -1.0540482 5
7.2336578 5.8279514 -0.96940821 5
5.0496244 2.7590756 -1.2167627 5
5.1917653 4.1835947 -1.1695213 5
4.1338911 2.2502992 -1.3387828 8
4.05725 3.2711229 -1.2897505 5
20.796099 19.474712 7.6142292 13
43.617325 28.111401 8.1947079 25
21.961632 20.49478 5.8268399 28
78.416588 50.537994 8.1588669 87
21.054426 13.565393 0.43657193 7
21.976585 20.422863 1.5704712 25
10.512947 6.7718787 -0.65572351 4
13.831161 12.846521 -0.32889324 5
6.9522862 4.4755225 -1.0094703 5
7.6113663 7.0691862 -0.90396053 4
5.1639957 3.3235466 -1.1847013 4
5.2578487 4.8864956 -1.13266 4
4.156981 2.6727507 -1.3139449 5
4.0615416 3.7824569 -1.2712985 5
27.01759 14.790364 6.5339723 169
63.566399 34.849621 10.183295 40
65.428986 35.900314 5.2031951 1
60.398884 48.733135 8.1532202 1
17.616104 9.6732473 0 5
9.6684179 5.3046179 -0.76679921 4
11.820462 9.5250807 -0.53154743 4
6.6249728 3.6288116 -1.0540482 5
7.2336578 5.8279514 -0.96940821 5
5.0496244 2.7590756 -1.2167627 5
5.1917653 4.1835947 -1.1695213 5
4.1338911 2.2502992 -1.3387828 8
4.05725 3.2711229 -1.2897505 5
20.796099 19.474712 7.6142292 13
43.617325 28.111401 8.1947079 25
21.961632 20.49478 5.8268399 28
21.054426 13.565393 0.43657193 7
21.976585 20.422863 1.5704712 25
10.512947 6.7718787 -0.65572351 4
13.831161 12.846521 -0.32889324 5
6.9522862 4.4755225 -1.0094703 5
7.6113663 7.0691862 -0.90396053 4
5.1639957 3.3235466 -1.1847013 4
5.2578487 4.8864956 -1.13266 4
4.156981 2.6727507 -1.3139449 5
4.0615416 3.7824569 -1.2712985 5
27.034662 14.6773 6.5256629 190
63.250473 34.389851 10.11336 18
35.462746 19.299517 2.8137369 4
55.967964 44.836189 7.533628 3
17.656349 9.6152811 0 5
9.69345 5.2744102 -0.76732111 4
11.839984 9.4728336 -0.53093362 4
6.6397762 3.6068447 -1.0543953 5
7.2481332 5.7980051 -0.96862692 5
5.052772 2.737942 -1.215202 4
5.206337 4.1654463 -1.1695213 5
4.1417212 2.2358553 -1.3387828 7
4.0762162 3.2630076 -1.292168 5
20.807367 19.349363 7.5935507 19
43.706867 27.953655 8.1931467 22
22.123028 20.501413 5.8506694 23
78.640785 50.29483 8.1638784 18
22.044069 20.342638 1.5702094 22
10.540728 6.7378283 -0.65598601 4
13.883269 12.804944 -0.32906777 5
6.9699578 4.4525628 -1.0097746 5
7.6231856 7.0307498 -0.9024384 4
5.1734967 3.3041801 -1.1842252 5
5.2766871 4.8697886 -1.1330515 4
4.1642494 2.6569257 -1.3132982 5
4.0675716 3.7616343 -1.2690525 5
27.034662 14.6773 6.5256629 190
72.53791 39.438816 11.599033 1
64.784973 35.253342 5.1421371 1
17.656349 9.6152811 0 5
9.69345 5.2744102 -0.76732111 4
11.839984 9.4728336 -0.53093362 4
6.6397762 3.6068447 -1.0543953 5
7.2481332 5.7980051 -0.96862692 5
5.052772 2.737942 -1.215202 4
5.206337 4.1654463 -1.1695213 5
4.1417212 2.2358553 -1.3387828 7
4.0762162 3.2630076 -1.292168 5
20.807367 19.349363 7.5935507 19
43.706867 27.953655 8.1931467 22
22.123028 20.501413 5.8506694 23
78.640785 50.29483 8.1638784 18
22.044069 20.342638 1.5702094 22
10.540728 6.7378283 -0.65598601 4
13.883269 12.804944 -0.32906777 5
6.9699578 4.4525628 -1.0097746 5
7.6231856 7.0307498 -0.9024384 4
5.1734967 3.3041801 -1.1842252 5
5.2766871 4.8697886 -1.1330515 4
4.1642494 2.6569257 -1.3132982 5
4.0675716 3.7616343 -1.2690525 5
27.105505 14.587385 6.5298176 83
68.031212 36.66642 10.856544 49
35.537636 19.171776 2.8140845 4
17.667271 9.5374451 0 5
9.7061291 5.2352972 -0.76679921 4
11.853104 9.4122801 -0.5299691 4
6.6420484 3.5766213 -1.05266 5
7.2732296 5.7744932 -0.9691478 5
5.0649281 2.7205598 -1.2157222 5
5.2138581 4.1402097 -1.1677849 5
4.1541276 2.2229242 -1.3401601 8
4.0862489 3.2465355 -1.2915636 5
20.878145 19.272972 7.5935507 27
39.882637 25.302471 7.4583545 13
22.165516 20.39028 5.8420911 26
76.687927 48.650803 7.942503 20
22.118481 20.261705 1.5702094 22
10.546374 6.6871204 -0.65480453 4
13.849006 12.679682 -0.32714799 5
6.9820375 4.4243312 -1.0091661 5
7.6470671 7.0010786 -0.90222085 4
5.1793523 3.2812579 -1.1827967 5
5.2908616 4.8470774 -1.1322685 5
4.1739593 2.6416452 -1.3132982 5
4.0813313 3.7467008 -1.2690525 5
27.105505 14.587385 6.5298176 83
68.031212 36.66642 10.856544 49
64.384743 34.730339 5.1002135 1
17.667271 9.5374451 0 5
9.7070436 5.233603 -0.76679921 4
11.853104 9.4122801 -0.5299691 4
6.6420484 3.5766213 -1.05266 5
7.2732329 5.774488 -0.9691478 5
5.0649281 2.7205598 -1.2157222 5
5.214581 4.1392994 -1.1677849 5
4.1541276 2.2229242 -1.3401601 8
4.0868163 3.2458224 -1.2915636 5
20.88151 19.269329 7.5935507 27
43.76524 27.765497 8.1849527 3
22.169073 20.38641 5.8420911 26
76.687927 48.650803 7.942503 20
22.122017 20.257845 1.5702094 22
10.546374 6.6871204 -0.65480453 4
13.851218 12.677265 -0.32714799 5
6.9820375 4.4243312 -1.0091661 5
7.6482882 6.9997444 -0.90222085 4
5.179925 3.2803538 -1.1827967 5
5.291707 4.8461537 -1.1322685 5
4.1744204 2.6409166 -1.3132982 5
4.0813313 3.7467008 -1.2690525 5
64.801147 34.648945 10.322468 6
34.483952 18.456118 2.7257152 6
17.685579 9.4717274 0 6
9.7155476 5.1966825 -0.76610345 4
11.870521 9.3620911 -0.52935529 4
6.6582408 3.5569065 -1.053354 5
7.2884374 5.7472572 -0.96862692 5
5.0717635 2.7026007 -1.215202 5
5.2321448 4.1250348 -1.1686531 5
4.1614766 2.2091362 -1.3401601 8
4.091845 3.2277429 -1.2897505 5
21.009373 19.258734 7.6168141 25
40.022739 25.205605 7.4688907 32
22.205757 20.284639 5.8339887 1
81.708572 51.456577 8.4449558 1
21.062057 13.26028 0.43382317 7
22.194613 20.189419 1.5706021 20
10.564266 6.6494517 -0.65454197 4
13.822917 12.567349 -0.32549 6
6.9945703 4.3998327 -1.0088619 5
7.6640906 6.967639 -0.90135109 4
5.1928525 3.2644639 -1.183273 4
5.3077488 4.8285799 -1.1322685 5
4.1770186 2.623208 -1.3113583 5
4.0883374 3.7282166 -1.2673678 5
68.390404 36.567841 10.894469 4
63.976208 34.23661 5.0588117 4
17.685579 9.4717274 0 6
9.7146397 5.1983786 -0.76610345 4
11.870521 9.3620911 -0.52935529 4
6.6576204 3.5580685 -1.053354 5
7.2884336 5.7472625 -0.96862692 5
5.0712914 2.7034857 -1.215202 5
5.2314248 4.125948 -1.1686531 5
4.1610913 2.2098625 -1.3401601 8
4.0912819 3.228457 -1.2897505 5
21.00601 19.2624 7.6168141 25
40.018341 25.212589 7.4688907 32
22.202215 20.288515 5.8339887 1
81.699593 51.470837 8.4449558 1
21.05974 13.263955 0.43382317 7
22.19109 20.193289 1.5706021 20
10.563106 6.6512957 -0.65454197 4
13.818533 12.572169 -0.32549 6
6.9938025 4.4010534 -1.0088619 5
7.6616583 6.970314 -0.90135109 4
5.1922827 3.2653704 -1.183273 4
5.3060632 4.8304319 -1.1322685 5
4.1761026 2.624666 -1.3113583 5
4.0876865 3.7289302 -1.2673678 5
64.950134 34.437607 10.326991 42
34.783886 18.460705 2.7443285 18
17.700869 9.4005575 0 5
9.739337 5.1679411 -0.76662529 4
11.887391 9.3082733 -0.5286538 4
6.6568708 3.5278587 -1.0512717 5
7.3045368 5.7187195 -0.96810597 4
5.0763726 2.683485 -1.2141616 5
5.249671 4.1106987 -1.1695213 5
4.1602697 2.1908529 -1.3374054 9
4.1063442 3.2171497 -1.2909591 5
25.789061 16.116741 7.0016832 3
21.148111 19.257267 7.6439548 29
40.204517 25.134266 7.4872313 35
75.450371 47.166878 7.7817001 41
69.987022 63.365238 11.57117 20
21.105911 13.190363 0.43382317 7
22.263292 20.117378 1.5707328 20
10.59261 6.61835 -0.65493584 4
13.823392 12.488657 -0.32457376 6
6.9943876 4.3674173 -1.0067322 5
7.6877899 6.9451971 -0.90156853 5
5.1994843 3.2446284 -1.1823206 4
5.3192306 4.8085666 -1.1314855 5
4.1831894 2.6087956 -1.3107117 5
4.1024823 3.7162762 -1.2679294 5
64.950134 34.437607 10.326991 42
63.789104 33.850605 5.0346317 4
17.700869 9.4005575 0 5
9.739337 5.1679411 -0.76662529 4
11.887391 9.3082733 -0.5286538 4
6.6574864 3.5266969 -1.0512717 5
7.3045368 5.7187195 -0.96810597 4
5.0768409 2.6825991 -1.2141616 5
5.249671 4.1106987 -1.1695213 5
4.1606522 2.1901267 -1.3374054 9
4.1063442 3.2171497 -1.2909591 5
25.791872 16.11224 7.0016832 3
21.148111 19.257267 7.6439548 29
40.208904 25.127247 7.4872313 35
75.458611 47.153706 7.7817001 41
21.108213 13.186679 0.43382317 7
22.263292 20.117378 1.5707328 20
10.593765 6.6165018 -0.65493584 4
13.825569 12.48625 -0.32457376 6
6.9951496 4.3661962 -1.0067322 5
7.6890011 6.9438553 -0.90156853 5
5.1994843 3.2446284 -1.1823206 4
5.3200698 4.8076386 -1.1314855 5
4.1836448 2.6080651 -1.3107117 5
4.1031303 3.71556 -1.2679294 5
55.426037 29.091734 13.286592 1
65.155411 34.255604 10.34056 2
34.552368 18.183571 2.7210183 18
54.408852 42.35355 7.2433 1
17.718086 9.3305626 0 6
9.744072 5.1269498 -0.76558149 4
11.906005 9.2559853 -0.52803999 4
6.6719484 3.5045862 -1.0516188 5
7.3283792 5.6962399 -0.96862692 5
5.0926738 2.6682608 -1.2157222 5
5.254272 4.0847898 -1.1673508 5
4.1725349 2.17781 -1.3387828 9
4.1156354 3.2013061 -1.2903548 5
25.628469 15.886075 6.9421616 41
21.243856 19.209246 7.654294 31
40.592285 25.170216 7.542253 28
40.236649 24.949705 4.1390262 2
21.137117 13.102383 0.43347412 7
22.340811 20.046213 1.5712562 22
10.60194 6.5702782 -0.65401685 4
13.826278 12.39952 -0.32357022 6
7.0082374 4.340445 -1.0064279 5
7.7057791 6.9103193 -0.90069872 4
5.2149525 3.2290421 -1.183273 5
5.3368192 4.7890387 -1.1314855 5
4.194777 2.5947154 -1.3113583 5
4.1160755 3.7012146 -1.2679294 5
55.426037 29.091734 13.286592 1
73.337868 38.556957 11.639741 86
63.240341 33.27705 4.9820971 4
17.718086 9.3305626 0 6
9.7449656 5.1252489 -0.76558149 4
11.906005 9.2559853 -0.52803999 4
6.6719484 3.5045862 -1.0516188 5
7.3283825 5.6962347 -0.96862692 5
5.0926738 2.6682608 -1.2157222 5
5.2549849 4.0838733 -1.1673508 5
4.1725349 2.17781 -1.3387828 9
4.1161938 3.2005877 -1.2903548 5
25.628469 15.886075 6.9421616 41
21.247211 19.205538 7.654294 31
40.592285 25.170216 7.542253 28
75.622742 46.890018 7.7817001 25
21.137117 13.102383 0.43347412 7
22.344309 20.042315 1.5712562 22
10.60194 6.5702782 -0.65401685 4
13.828443 12.397106 -0.32357022 6
7.0082374 4.340445 -1.0064279 5
7.706985 6.9089746 -0.90069872 4
5.2155156 3.2281318 -1.183273 5
5.3376551 4.7881064 -1.1314855 5
4.19523 2.5939829 -1.3113583 5
4.1160755 3.7012146 -1.2679294 5
55.493237 28.86808 13.277244 4
62.630505 32.635876 9.9206057 18
34.744823 18.122536 2.7309337 13
54.538136 42.13409 7.2399025 4
17.745518 9.2620907 0 6
9.7592611 5.087194 -0.76523358 4
11.927982 9.203126 -0.52751392 4
6.6715689 3.4732566 -1.0495363 5
7.3374019 5.6602221 -0.96706426 5
5.1024194 2.6495774 -1.2157222 5
5.2757645 4.069098 -1.1686531 6
4.1698108 2.1569912 -1.3353394 9
4.1278968 3.1854799 -1.2903548 5
25.638788 15.762692 6.9292464 51
21.342619 19.150118 7.6633406 24
40.675854 25.016092 7.5406919 20
40.321465 24.798147 4.1383724 20
69.862679 62.326828 11.474726 6
21.187128 13.026133 0.43351775 7
22.426941 19.968586 1.5719104 20
10.621697 6.5287623 -0.65375429 4
13.851385 12.326394 -0.32304665 6
7.0262141 4.3160281 -1.0067322 5
7.7229567 6.8723979 -0.89961141 4
5.2210369 3.2051439 -1.1818444 5
5.3514824 4.7652249 -1.1307024 5
4.2088275 2.5811131 -1.3126516 4
4.1259809 3.6828558 -1.2668064 5
55.493237 28.86808 13.277244 4
73.638977 38.37141 11.66514 1
62.758171 32.730232 4.934607 4
17.745518 9.2620907 0 6
9.7592611 5.087194 -0.76523358 4
11.927982 9.203126 -0.52751392 4
6.6715689 3.4732566 -1.0495363 5
7.3374019 5.6602221 -0.96706426 5
5.1024194 2.6495774 -1.2157222 5
5.2757645 4.069098 -1.1686531 6
4.1698108 2.1569912 -1.3353394 9
4.1278968 3.1854799 -1.2903548 5
25.638788 15.762692 6.9292464 51
21.342619 19.150118 7.6633406 24
40.675854 25.016092 7.5406919 20
21.187128 13.026133 0.43351775 7
22.426941 19.968586 1.5719104 20
10.621697 6.5287623 -0.65375429 4
13.851385 12.326394 -0.32304665 6
7.0262141 4.3160281 -1.0067322 5
7.7229567 6.8723979 -0.89961141 4
5.2210369 3.2051439 -1.1818444 5
5.3514824 4.7652249 -1.1307024 5
4.2088275 2.5811131 -1.3126516 4
4.1259809 3.6828558 -1.2668064 5
55.639309 28.697735 13.288151 6
62.807831 32.450008 9.9306955 23
35.013905 18.107664 2.7471118 13
17.786623 9.2046852 0 5
9.7680969 5.0485201 -0.76453781 4
11.944168 9.1492767 -0.52681237 4
6.685853 3.451082 -1.0498835 5
7.353168 5.6315517 -0.96654332 5
5.105113 2.6283972 -1.2141616 5
5.2821188 4.0446672 -1.1669166 6
4.183733 2.1457069 -1.3374054 9
4.1351409 3.1680992 -1.2891461 5
25.687414 15.669294 6.9275618 51
21.436382 19.099606 7.6730337 25
40.92313 24.971704 7.5703492 16
70.042671 62.049671 11.468641 39
21.174849 12.916953 0.4323397 7
22.556351 19.943106 1.5760972 28
10.64229 6.490346 -0.65362304 4
13.866237 12.253133 -0.32239217 6
7.0369987 4.2888942 -1.0061238 5
7.7468996 6.8453979 -0.89961141 5
5.2342901 3.1881757 -1.1823206 4
5.3699322 4.7481527 -1.131094 4
4.2198753 2.5676606 -1.3132982 5
4.1388116 3.668431 -1.2668064 5
55.639309 28.697735 13.288151 6
73.805458 38.131172 11.670359 1
62.43119 32.283035 4.8999901 2
17.786623 9.2046852 0 5
9.7672157 5.0502243 -0.76453781 4
11.944168 9.1492767 -0.52681237 4
6.685853 3.451082 -1.0498835 5
7.3531647 5.6315565 -0.96654332 5
5.105113 2.6283972 -1.2141616 5
5.2814126 4.0455894 -1.1669166 6
4.183733 2.1457069 -1.3374054 9
4.1345873 3.1688206 -1.2891461 5
25.687414 15.669294 6.9275618 51
21.433046 19.103348 7.6730337 25
45.111618 27.527367 8.3457251 1
70.03183 62.061893 11.468641 39
21.174849 12.916953 0.4323397 7
22.55287 19.947042 1.5760972 28
10.64229 6.490346 -0.65362304 4
13.864098 12.255552 -0.32239217 6
7.0369987 4.2888942 -1.0061238 5
7.7457042 6.8467493 -0.89961141 5
5.2337332 3.1890893 -1.1823206 4
5.3691039 4.7490897 -1.131094 4
4.2194271 2.568397 -1.3132982 5
4.1388116 3.668431 -1.2668064 5
27.798853 14.223995 6.6243396 4
63.723698 32.655869 10.058387 73
34.459053 17.676218 2.698926 1
52.932903 40.321507 6.9900794 6
17.799253 9.1365223 0 6
9.7816896 5.0166702 -0.76436383 4
11.95456 9.0944891 -0.52593559 4
6.6950555 3.4277647 -1.0495363 5
7.3619051 5.5996127 -0.96524096 5
5.1159792 2.6125643 -1.2146819 5
5.2967587 4.0295448 -1.1673508 5
4.1886826 2.1307337 -1.3367168 9
4.1489325 3.1580329 -1.2903548 5
25.737152 15.582765 6.9270005 38
21.951874 19.435669 7.8358774 30
41.005714 24.835865 7.5703492 13
78.538132 47.566299 8.0300941 1
70.585548 62.135941 11.525534 50
21.159832 12.811712 0.43116167 7
22.656399 19.905107 1.578714 36
10.648803 6.445971 -0.65270412 4
13.865227 12.174865 -0.32147592 6
7.040565 4.2591147 -1.0046026 5
7.7571411 6.811162 -0.89830667 4
5.2400789 3.1691768 -1.1813682 5
5.381115 4.7279973 -1.1303109 5
4.2237854 2.5518944 -1.3120049 5
4.1472988 3.6514633 -1.2656833 5
55.877861 28.586573 13.322428 1
74.048271 37.946049 11.688799 1
61.974236 31.786766 4.8558049 1
17.799253 9.1365223 0 6
9.7816896 5.0166702 -0.76436383 4
11.95456 9.0944891 -0.52593559 4
6.6944575 3.4289331 -1.0495363 5
7.3619051 5.5996127 -0.96524096 5
5.1155233 2.613457 -1.2146819 5
5.2967587 4.0295448 -1.1673508 5
4.1883101 2.1314647 -1.3367168 9
4.1489325 3.1580329 -1.2903548 5
25.734432 15.587257 6.9270005 38
21.951874 19.435669 7.8358774 30
45.140854 27.35096 8.3351889 1
78.529823 47.580006 8.0300941 1
70.585548 62.135941 11.525534 50
21.157597 12.815406 0.43116167 7
22.656399 19.905107 1.578714 36
10.647676 6.4478297 -0.65270412 4
13.863105 12.17728 -0.32147592 6
7.0398211 4.260344 -1.0046026 5
7.7559524 6.8125157 -0.89830667 4
5.2400789 3.1691768 -1.1813682 5
5.3802896 4.7289362 -1.1303109 5
4.22334 2.5526316 -1.3120049 5
4.1466618 3.6521871 -1.2656833 5
27.885412 14.145675 6.6331687 2
63.910133 32.470234 10.069868 43
33.384541 16.978251 2.6100345 1
53.032616 40.120255 6.9856377 20
17.851091 9.0845356 0 5
9.8035879 4.9847541 -0.76471174 4
11.976267 9.0451736 -0.52549714 4
6.7085938 3.4066644 -1.0498835 5
7.3873587 5.5783772 -0.96602237 5
5.1246152 2.5955846 -1.2146819 5
5.3127561 4.0125151 -1.1677849 5
4.1978717 2.1179123 -1.3374054 9
4.1541271 3.1391411 -1.2885417 5
25.859682 15.539991 6.9460921 38
22.101191 19.430695 7.8649569 29
40.179905 24.153982 7.4029427 4
78.552422 47.219635 8.0154963 71
21.157209 12.714438 0.43024543 7
22.695646 19.799635 1.5766207 9
10.672261 6.4119091 -0.65283537 5
13.933777 12.153467 -0.32213041 7
7.0631599 4.2408514 -1.0058194 5
7.7778096 6.7837634 -0.89808923 5
5.2511091 3.1508665 -1.1813682 5
5.3967638 4.7101269 -1.1303109 5
4.2405109 2.5428391 -1.3145915 5
4.1520557 3.6312695 -1.2634372 5
27.885412 14.145675 6.6331687 2
74.25753 37.726585 11.700977 1
61.529041 31.287672 4.8123159 1
53.039616 40.110992 6.9856377 20
17.851091 9.0845356 0 5
9.8035879 4.9847541 -0.76471174 4
11.976267 9.0451736 -0.52549714 4
6.7091889 3.4054933 -1.0498835 5
7.3873587 5.5783772 -0.96602237 5
5.1250682 2.5946901 -1.2146819 5
5.3127561 4.0125151 -1.1677849 5
4.1982417 2.1171796 -1.3374054 9
4.1541271 3.1391411 -1.2885417 5
25.862392 15.535478 6.9460921 38
22.101191 19.430695 7.8649569 29
45.297947 27.219667 8.3457251 1
78.560669 47.205925 8.0154963 71
70.370453 61.511906 11.455255 50
21.15943 12.710747 0.43024543 7
22.695646 19.799635 1.5766207 9
10.673379 6.4100456 -0.65283537 5
13.935895 12.151041 -0.32213041 7
7.0639 4.2396188 -1.0058194 5
7.7789931 6.7824059 -0.89808923 5
5.2511091 3.1508665 -1.1813682 5
5.3975859 4.7091851 -1.1303109 5
4.2409549 2.542099 -1.3145915 5
4.1526895 3.6305444 -1.2634372 5
27.978319 14.07022 6.6435561 6
74.501541 37.523933 11.718722 85
33.423557 16.851509 2.6084688 2
50.660183 38.034199 6.6545434 13
17.833582 8.9974041 0 5
9.8120193 4.9460158 -0.76401591 4
11.999773 8.9973173 -0.52514642 4
6.7121859 3.3776064 -1.0484952 5
7.4008179 5.5480804 -0.96524096 5
5.131907 2.5756893 -1.2141616 5
5.3188524 3.9880357 -1.1660484 5
4.2034559 2.1014395 -1.3367168 9
4.1728187 3.1304474 -1.2909591 5
25.947857 15.463812 6.954515 38
22.456293 19.60442 7.9670572 30
40.686012 24.255642 7.4798169 2
78.76989 46.958191 8.020071 16
70.277428 60.999126 11.405359 81
21.15428 12.607377 0.4292419 6
10.67853 6.3625293 -0.65178514 4
13.959332 12.085955 -0.32169405 7
7.0722604 4.2111287 -1.0049068 5
7.8026214 6.7552109 -0.89808923 4
5.2641854 3.1337721 -1.1818444 4
5.4046655 4.6822248 -1.1283534 5
4.2456508 2.5248125 -1.3132982 5
4.1616607 3.6128297 -1.2623141 5
56.749023 28.534088 13.482388 1
74.501541 37.523933 11.718722 85
61.203613 30.853813 4.7783952 1
17.833582 8.9974041 0 5
9.8120193 4.9460158 -0.76401591 4
11.999773 8.9973173 -0.52514642 4
6.7121859 3.3776064 -1.0484952 5
7.4008179 5.5480804 -0.96524096 5
5.131907 2.5756893 -1.2141616 5
5.3188524 3.9880357 -1.1660484 5
4.2034559 2.1014395 -1.3367168 9
4.1728187 3.1304474 -1.2909591 5
25.947857 15.463812 6.954515 38
22.456293 19.60442 7.9670572 30
70.277428 60.999126 11.405359 81
21.15428 12.607377 0.4292419 6
10.67853 6.3625293 -0.65178514 4
13.959332 12.085955 -0.32169405 7
7.0722604 4.2111287 -1.0049068 5
7.8026214 6.7552109 -0.89808923 4
5.2641854 3.1337721 -1.1818444 4
5.4046655 4.6822248 -1.1283534 5
4.2456508 2.5248125 -1.3132982 5
4.1616607 3.6128297 -1.2623141 5
28.040644 13.97303 6.6461525 2
66.143364 33.011364 10.384399 26
33.560955 16.766781 2.6143832 1
50.918869 37.937393 6.6702228 4
17.857496 8.9275122 0 5
9.8323126 4.9111338 -0.7641899 4
12.004609 8.9323902 -0.52391881 4
6.7245207 3.3529823 -1.0484952 5
7.4250913 5.5238867 -0.9657619 5
5.1478839 2.5601244 -1.2157222 5
5.3373833 3.9714546 -1.1669166 5
4.213284 2.0870836 -1.3374054 9
4.1745377 3.1078849 -1.2879373 5
26.025333 15.380998 6.9601302 35
22.754278 19.718134 8.0471869 28
61.929588 36.612377 11.363328 4
71.684402 42.379055 7.2825155 85
63.646648 54.835453 10.296099 3
21.153002 12.501782 0.42828202 5
10.701779 6.3233476 -0.65178514 4
14.011115 12.041228 -0.3218686 5
7.0897841 4.18644 -1.005211 5
7.8159986 6.7168217 -0.89678448 4
5.2777495 3.1157043 -1.1823206 4
5.4236612 4.6639957 -1.1287448 5
4.2569566 2.5104601 -1.3139449 5
4.180407 3.6023276 -1.2639987 5
56.741585 28.270288 13.455901 16
60.858894 30.400839 4.742734 1
50.918869 37.937393 6.6702228 4
17.857496 8.9275122 0 5
9.8323126 4.9111338 -0.7641899 4
12.004609 8.9323902 -0.52391881 4
6.7245207 3.3529823 -1.0484952 5
7.4250913 5.5238867 -0.9657619 5
5.1478839 2.5601244 -1.2157222 5
5.3373833 3.9714546 -1.1669166 5
4.213284 2.0870836 -1.3374054 9
4.1745377 3.1078849 -1.2879373 5
26.025333 15.380998 6.9601302 35
22.754278 19.718134 8.0471869 28
61.929588 36.612377 11.363328 4
71.684402 42.379055 7.2825155 85
70.596397 60.823742 11.420875 18
21.153002 12.501782 0.42828202 5
10.701779 6.3233476 -0.65178514 4
14.011115 12.041228 -0.3218686 5
7.0897841 4.18644 -1.005211 5
7.8159986 6.7168217 -0.89678448 4
5.2777495 3.1157043 -1.1823206 4
5.4236612 4.6639957 -1.1287448 5
4.2569566 2.5104601 -1.3139449 5
4.180407 3.6023276 -1.2639987 5
28.124329 13.892388 6.6544619 2
66.391342 32.846146 10.405276 38
17.848227 8.845149 0 5
9.8382177 4.871253 -0.76332003 4
12.01964 8.8785534 -0.52321732 4
6.7295237 3.3262014 -1.0474539 5
7.4403296 5.4949799 -0.96524096 5
5.1545954 2.5410595 -1.215202 4
5.3472543 3.9498727 -1.1660484 5
4.222702 2.0734212 -1.3380942 9
4.1853609 3.0932944 -1.2879373 5
26.110388 15.308539 6.9685535 28
22.892523 19.698452 8.0717421 28
59.428509 34.854465 10.881791 2
71.853386 42.141174 7.2846947 49
63.747162 54.535519 10.281496 13
10.721632 6.2846909 -0.65165389 4
14.034052 11.976016 -0.32143229 5
7.0957885 4.1566515 -1.0039941 5
7.8431854 6.6927342 -0.89721942 5
5.2758846 3.0898237 -1.1794635 4
5.4380322 4.6434302 -1.1283534 4
4.2636094 2.4943669 -1.3132982 5
4.1911063 3.586128 -1.2634372 6
56.508823 27.908558 13.377479 18
60.569046 29.992359 4.7119436 1
17.848227 8.845149 0 5
9.8382177 4.871253 -0.76332003 4
12.01964 8.8785534 -0.52321732 4
6.7295237 3.3262014 -1.0474539 5
7.4403296 5.4949799 -0.96524096 5
5.1545954 2.5410595 -1.215202 4
5.3472543 3.9498727 -1.1660484 5
4.222702 2.0734212 -1.3380942 9
4.1853609 3.0932944 -1.2879373 5
26.110388 15.308539 6.9685535 28
22.892523 19.698452 8.0717421 28
62.054886 36.394737 11.362939 4
71.853386 42.141174 7.2846947 49
70.855423 60.617279 11.428481 1
10.721632 6.2846909 -0.65165389 4
14.034052 11.976016 -0.32143229 5
7.0957885 4.1566515 -1.0039941 5
7.8431854 6.6927342 -0.89721942 5
5.2758846 3.0898237 -1.1794635 4
5.4380322 4.6434302 -1.1283534 4
4.2636094 2.4943669 -1.3132982 5
4.1911063 3.586128 -1.2634372 6
28.227352 13.827012 6.6679654 3
66.566574 32.658508 10.415713 28
32.241558 15.834505 2.5030515 6
49.228245 36.159214 6.4162183 9
17.881948 8.7881184 0 5
9.8520794 4.837503 -0.7631461 4
12.030887 8.825345 -0.52242815 4
6.7382932 3.3027792 -1.0471069 5
7.4625192 5.4732184 -0.9657619 5
5.1585979 2.5218077 -1.2141616 5
5.3543692 3.9277484 -1.164746 5
4.2209077 2.0552065 -1.3353394 9
4.1995058 3.0822706 -1.2891461 6
26.203123 15.24637 6.9797835 28
22.94487 19.611444 8.0672188 23
59.646206 34.716824 10.900522 6
63.848248 54.256336 10.268717 4
10.738098 6.246592 -0.65139133 4
14.010778 11.87606 -0.31999245 6
7.1095333 4.1330981 -1.0039941 5
7.8520417 6.6554093 -0.89569724 4
5.3009572 3.0809405 -1.1827967 4
5.4590459 4.630167 -1.1295278 5
4.2781234 2.4838498 -1.3152381 6
4.1974101 3.5674725 -1.2617526 5
56.420963 27.632822 13.334891 18
75.217133 36.901989 11.769868 1
60.370438 29.645159 4.688808 1
17.881948 8.7881184 0 5
9.8520794 4.837503 -0.7631461 4
12.030887 8.825345 -0.52242815 4
6.7377167 3.3039548 -1.0471069 5
7.4625192 5.4732184 -0.9657619 5
5.1581578 2.5227082 -1.2141616 5
5.3543692 3.9277484 -1.164746 5
4.2205486 2.055943 -1.3353394 9
4.1995058 3.0822706 -1.2891461 6
26.20046 15.250943 6.9797835 28
22.94487 19.611444 8.0672188 23
62.010998 36.107655 11.334061 1
71.201637 60.505714 11.451908 1
10.737007 6.2484655 -0.65139133 4
14.008709 11.878499 -0.31999245 6
7.1088123 4.1343393 -1.0039941 5
7.8508797 6.6567802 -0.89569724 4
5.3009572 3.0809405 -1.1827967 4
5.4582381 4.6311193 -1.1295278 5
4.2776899 2.4845967 -1.3152381 6
4.1967874 3.5682046 -1.2617526 5
28.323845 13.751887 6.6793914 3
59.410835 28.891445 9.2797136 18
32.195721 15.672755 2.4952238 6
49.470406 36.085148 6.4321589 4
17.854073 8.6971922 0 5
9.8689051 4.8030834 -0.7631461 4
12.051523 8.7759399 -0.5219897 4
6.7514353 3.2814965 -1.0474539 5
7.4735408 5.4412804 -0.96472013 5
5.1603289 2.5014923 -1.2126009 4
5.3660564 3.9075844 -1.1643119 5
4.2298646 2.0422409 -1.3360281 6
4.2043595 3.0633047 -1.2873329 5
26.280964 15.17523 6.9870839 16
23.003983 19.523417 8.0639877 1
59.743893 34.508961 10.8974 6
75.031929 43.339066 7.5777564 1
61.740692 52.095135 9.9002829 1
10.752266 6.2072053 -0.65099752 5
14.00994 11.795711 -0.31907618 5
7.1189008 4.1070199 -1.0033855 5
7.8721638 6.6277304 -0.8954798 4
5.3052998 3.058742 -1.1813682 5
5.4705958 4.6088543 -1.1287448 4
4.2800584 2.4660349 -1.3132982 5
4.2036366 3.5488143 -1.2600679 5
56.543484 27.448524 13.341125 18
75.432304 36.681423 11.783437 1
60.412994 29.404776 4.6841106 1
17.854073 8.6971922 0 5
9.8689051 4.8030834 -0.7631461 4
12.051523 8.7759399 -0.5219897 4
6.752008 3.2803183 -1.0474539 5
7.4735408 5.4412804 -0.96472013 5
5.1607652 2.5005915 -1.2126009 4
5.3660564 3.9075844 -1.1643119 5
4.2302213 2.0415027 -1.3360281 6
4.2043595 3.0633047 -1.2873329 5
26.283613 15.170642 6.9870839 16
23.003983 19.523417 8.0639877 1
75.039497 43.32597 7.5777564 1
10.753348 6.205328 -0.65099752 5
14.011995 11.79327 -0.31907618 5
7.1196175 4.1057777 -1.0033855 5
7.8733206 6.6263561 -0.8954798 4
5.3052998 3.058742 -1.1813682 5
5.4713998 4.6078997 -1.1287448 4
4.2804885 2.4652877 -1.3132982 5
4.2042556 3.5480807 -1.2600679 5
28.420156 13.676257 6.6908174 6
59.576004 28.715057 9.2898035 18
31.958216 15.419424 2.4726093 13
17.877569 8.6315565 0 5
9.8721304 4.7621098 -0.76210237 4
12.086132 8.7367468 -0.52216512 4
6.7634172 3.2567294 -1.0474539 5
7.4844294 5.4093323 -0.9636783 5
5.1782827 2.4867897 -1.2146819 5
5.3796644 3.8888292 -1.1643119 6
4.2351527 2.0256891 -1.3353394 3
4.2248521 3.0557225 -1.2903548 5
26.385033 15.10664 6.9999986 20
59.925682 34.321659 10.907546 4
75.134079 43.031586 7.5720906 9
59.436253 49.796337 9.5026407 16
10.764111 6.1615543 -0.65034109 4
14.016642 11.713823 -0.31824717 6
7.1295977 4.0784373 -1.0027771 5
7.8868513 6.5908432 -0.89439249 4
5.3138137 3.0389867 -1.180892 5
5.4817719 4.5840173 -1.1275703 5
4.2827759 2.4467392 -1.3113583 4
4.2147498 3.5318174 -1.2595066 5
43.216614 20.849831 3.3444762 103
17.877569 8.6315565 0 5
9.8721304 4.7621098 -0.76210237 4
12.086132 8.7367468 -0.52216512 4
6.7634172 3.2567294 -1.0474539 5
7.4844294 5.4093323 -0.9636783 5
5.1782827 2.4867897 -1.2146819 5
5.3796644 3.8888292 -1.1643119 6
4.2351527 2.0256891 -1.3353394 3
4.2248521 3.0557225 -1.2903548 5
26.385033 15.10664 6.9999986 20
65.038467 37.249775 11.838622 1
75.134079 43.031586 7.5720906 9
61.726254 51.715153 9.8689461 1
10.764111 6.1615543 -0.65034109 4
14.016642 11.713823 -0.31824717 6
7.1295977 4.0784373 -1.0027771 5
7.8868513 6.5908432 -0.89439249 4
5.3138137 3.0389867 -1.180892 5
5.4817719 4.5840173 -1.1275703 5
4.2827759 2.4467392 -1.3113583 4
4.2147498 3.5318174 -1.2595066 5
60.310871 28.797283 9.3879213 13
31.913254 15.253801 2.4647813 1
17.88653 8.555191 0 5
9.8962698 4.7291179 -0.76262426 4
12.093713 8.6749125 -0.52111286 4
6.7641325 3.2265952 -1.0457186 5
7.5082459 5.3847637 -0.96419924 5
5.1807356 2.4646471 -1.2131212 5
5.3998814 3.8733926 -1.1656142 6
4.2512398 2.014261 -1.3380942 3
4.2340531 3.0388021 -1.2897505 5
26.491072 15.038693 7.0134754 31
60.008137 34.077408 10.899742 4
75.297791 42.759605 7.5727444 1
59.418045 49.411549 9.4706945 6
10.780107 6.1183643 -0.64994729 4
14.015242 11.625655 -0.31724367 5
7.1337047 4.0461593 -1.0012559 5
7.9109545 6.5618916 -0.89439249 5
5.3185105 3.0158601 -1.1794635 4
5.4947386 4.5607386 -1.1267872 5
4.2917151 2.4310255 -1.3113583 6
4.2276664 3.516346 -1.2595066 5
67.658928 32.305275 10.532271 1
43.346748 20.7171 3.3486514 1
17.88653 8.555191 0 5
9.8970957 4.7273903 -0.76262426 4
12.093713 8.6749125 -0.52111286 4
6.7641325 3.2265952 -1.0457186 5
7.5082493 5.3847585 -0.96419924 5
5.1807356 2.4646471 -1.2131212 5
5.4005575 3.8724504 -1.1656142 6
4.2512398 2.014261 -1.3380942 3
4.2345834 3.0380628 -1.2897505 5
26.491072 15.038693 7.0134754 31
65.208908 37.030655 11.844865 4
75.297791 42.759605 7.5727444 1
59.42667 49.401176 9.4706945 6
10.780107 6.1183643 -0.64994729 4
14.01727 11.62321 -0.31724367 5
7.1337047 4.0461593 -1.0012559 5
7.9120998 6.5605116 -0.89439249 5
5.3190374 3.0149317 -1.1794635 4
5.4955349 4.5597792 -1.1267872 5
4.2921395 2.4302766 -1.3113583 6
4.2276664 3.516346 -1.2595066 5
57.115547 26.978662 13.407602 20
66.92762 31.669748 10.401101 25
31.97983 15.148715 2.4658251 1
17.873358 8.4723663 0 5
9.9000101 4.6864171 -0.76158053 4
12.115781 8.6268473 -0.52076215 4
6.7775931 3.204021 -1.0460657 5
7.5209236 5.3541894 -0.96341783 4
5.1981573 2.4507124 -1.215202 5
5.4040151 3.8464339 -1.1634437 5
4.2582445 1.9994092 -1.3380942 3
4.2491131 3.0260787 -1.2909591 4
26.571001 14.961668 7.0207753 28
60.21278 33.916206 10.915351 6
61.345886 50.635719 9.7484665 28
21.52562 12.12104 0.43059444 5
10.797048 6.078249 -0.64968473 5
14.017242 11.540834 -0.31632742 5
7.1412969 4.0175853 -1.0003432 5
7.9272647 6.5265183 -0.89352274 4
5.3252497 2.993942 -1.1785113 4
5.503799 4.5342841 -1.1252213 5
4.3048081 2.4176431 -1.3126516 4
4.2474232 3.5077786 -1.2617526 5
57.115547 26.978662 13.407602 20
66.92762 31.669748 10.401101 25
43.328636 20.522968 3.3416929 1
17.873358 8.4723663 0 5
9.8991928 4.6881452 -0.76158053 4
12.115781 8.6268473 -0.52076215 4
6.7770338 3.2052038 -1.0460657 5
7.5209208 5.3541942 -0.96341783 4
5.1977301 2.4516199 -1.215202 5
5.4033437 3.8473771 -1.1634437 5
4.2578955 2.0001523 -1.3380942 3
4.2485847 3.0268204 -1.2909591 4
26.568392 14.966306 7.0207753 28
62.848709 35.415314 11.394547 1
61.337044 50.646423 9.7484665 28
21.523504 12.124797 0.43059444 5
10.795986 6.080133 -0.64968473 5
14.015227 11.543281 -0.31632742 5
7.1405954 4.0188313 -1.0003432 5
7.9249859 6.529285 -0.89352274 4
5.3247271 2.9948716 -1.1785113 4
5.5022159 4.5362048 -1.1252213 5
4.3039641 2.4191453 -1.3126516 4
4.2468109 3.5085196 -1.2617526 5
57.348648 26.856516 13.44136 24
60.539116 28.401869 9.3931398 3
31.783823 14.927054 2.4468639 16
17.980553 8.4502516 0 4
9.9169416 4.6563516 -0.76175451 4
12.136161 8.5808506 -0.52041137 4
6.7853832 3.181663 -1.0457186 5
7.5447249 5.3335319 -0.96419924 5
5.2036157 2.4333358 -1.2146819 5
5.422102 3.833704 -1.164746 5
4.2754025 1.9910848 -1.3415375 5
4.2645378 3.0169203 -1.2927724 5
26.654024 14.898324 7.0303211 30
61.601463 34.44389 11.147534 9
68.212753 38.140324 6.8343177 9
59.850853 49.086224 9.4862108 25
21.506863 12.02165 0.42946008 5
10.80955 6.0406461 -0.64929092 5
14.018611 11.468243 -0.31554204 5
7.1430488 3.9890826 -0.99882191 4
7.9465942 6.5029693 -0.89352274 4
5.3281989 2.9736114 -1.1770827 5
5.5191374 4.5194993 -1.1256127 5
4.2993064 2.3978064 -1.3087718 5
4.2565398 3.4928706 -1.261191 5
57.348648 26.856516 13.44136 24
66.987442 31.426605 10.394142 16
31.783823 14.927054 2.4468639 16
17.980553 8.4502516 0 4
9.9169416 4.6563516 -0.76175451 4
12.136161 8.5808506 -0.52041137 4
6.7853832 3.181663 -1.0457186 5
7.5447249 5.3335319 -0.96419924 5
5.2036157 2.4333358 -1.2146819 5
5.422102 3.833704 -1.164746 5
4.2754025 1.9910848 -1.3415375 5
4.2645378 3.0169203 -1.2927724 5
26.654024 14.898324 7.0303211 30
61.601463 34.44389 11.147534 9
68.212753 38.140324 6.8343177 9
61.479717 50.422287 9.7445107 1
21.506863 12.02165 0.42946008 5
10.80955 6.0406461 -0.64929092 5
14.018611 11.468243 -0.31554204 5
7.1430488 3.9890826 -0.99882191 4
7.9465942 6.5029693 -0.89352274 4
5.3281989 2.9736114 -1.1770827 5
5.5191374 4.5194993 -1.1256127 5
4.2993064 2.3978064 -1.3087718 5
4.2565398 3.4928706 -1.261191 5
57.377712 26.626318 13.426298 32
60.655842 28.198721 9.3959227 16
31.95331 14.87072 2.4559095 22
45.658699 32.098888 5.8624787 3
17.966877 8.3673916 0 4
9.9240894 4.6175017 -0.76105869 4
12.155816 8.5312576 -0.51997298 5
6.7964482 3.157958 -1.0457186 5
7.559227 5.304307 -0.9636783 4
5.20542 2.4120777 -1.2131212 5
5.4294066 3.8105085 -1.1634437 5
4.2801437 1.9751438 -1.3408488 6
4.2690892 2.9978313 -1.2909591 5
26.752745 14.831177 7.042675 31
60.20533 33.387978 10.873597 13
68.238754 37.842804 6.8236408 90
61.414845 50.011501 9.706481 1
21.487484 11.912573 0.42823842 6
10.828387 6.0016675 -0.64915967 4
13.988726 11.362488 -0.31397131 5
7.1547599 3.962923 -0.99851769 5
7.9595847 6.4673333 -0.89243543 5
5.3385458 2.9549944 -1.1770827 4
5.5291348 4.4955292 -1.1244382 4
4.3139901 2.3862891 -1.3107117 4
4.266819 3.4764507 -1.2606295 5
57.377712 26.626318 13.426298 32
67.271843 31.273979 10.421281 4
31.95331 14.87072 2.4559095 22
45.664299 32.090916 5.8624787 3
17.966877 8.3673916 0 4
9.9240894 4.6175017 -0.76105869 4
12.155816 8.5312576 -0.51997298 5
6.7969995 3.1567719 -1.0457186 5
7.559227 5.304307 -0.9636783 4
5.2058401 2.4111691 -1.2131212 5
5.4294066 3.8105085 -1.1634437 5
4.2804885 1.9743967 -1.3408488 6
4.2690892 2.9978313 -1.2909591 5
26.755331 14.826507 7.042675 31
71.718292 39.755981 12.952711 1
68.245354 37.830891 6.8236408 90
61.414845 50.011501 9.706481 1
21.489561 11.908822 0.42823842 6
10.829434 5.9997773 -0.64915967 4
13.988726 11.362488 -0.31397131 5
7.1554513 3.9616742 -0.99851769 5
7.9607124 6.4659438 -0.89243543 5
5.3385458 2.9549944 -1.1770827 4
5.5299196 4.4945641 -1.1244382 4
4.3144069 2.3855362 -1.3107117 4
4.267426 3.4757061 -1.2606295 5
57.486034 26.420948 13.428896 34
60.781277 27.98657 9.3994026 18
76.066719 53.121616 16.336697 4
31.955509 14.729501 2.4519086 26
45.777531 31.920488 5.8619561 6
17.992882 8.2993898 0 4
9.9364147 4.579011 -0.76071078 4
12.174702 8.4780788 -0.51944685 4
6.7995248 3.1277051 -1.0443304 5
7.5765762 5.2751431 -0.96341783 5
5.214643 2.3920727 -1.2131212 5
5.4392962 3.7877681 -1.1625754 5
4.2811356 1.9557047 -1.3387828 5
4.2780585 2.9807765 -1.2903548 5
26.809494 14.728345 7.042675 26
60.255177 33.113747 10.85955 16
68.477417 37.632084 6.8330107 77
21.537445 11.832386 0.42832565 5
10.849163 5.9588437 -0.64902836 4
13.9758 11.267199 -0.31274965 4
7.1633964 3.9318407 -0.99760503 5
7.9746666 6.4289026 -0.89134812 5
5.3579488 2.9401281 -1.1789874 5
5.5521188 4.4789209 -1.1256127 4
4.3273568 2.3720269 -1.3120049 5
4.2858157 3.4646413 -1.2623141 5
57.486034 26.420948 13.428896 34
75.245598 34.645531 11.637306 18
76.066719 53.121616 16.336697 4
31.955509 14.729501 2.4519086 26
45.777531 31.920488 5.8619561 6
17.992882 8.2993898 0 4
9.9372139 4.5772767 -0.76071078 4
12.174702 8.4780788 -0.51944685 4
6.7995248 3.1277051 -1.0443304 5
7.5765791 5.2751379 -0.96341783 5
5.214643 2.3920727 -1.2131212 5
5.4399576 3.7868185 -1.1625754 5
4.2811356 1.9557047 -1.3387828 5
4.2785788 2.9800301 -1.2903548 5
26.809494 14.728345 7.042675 26
71.991211 39.563015 12.975735 1
68.477417 37.632084 6.8330107 77
61.581337 49.755043 9.7025261 1
21.537445 11.832386 0.42832565 5
10.849163 5.9588437 -0.64902836 4
13.977767 11.264758 -0.31274965 4
7.1633964 3.9318407 -0.99760503 5
7.9757891 6.4275112 -0.89134812 5
5.3584619 2.939193 -1.1789874 5
5.5528998 4.4779515 -1.1256127 4
4.3277707 2.3712716 -1.3120049 5
4.2858157 3.4646413 -1.2623141 5
57.622425 26.240389 13.439281 26
60.86058 27.766014 9.3966198 9
76.318451 52.902058 16.351007 1
32.072517 14.647903 2.456953 20
45.755798 31.668526 5.8449702 6
18.044485 8.2469187 0 4
9.9576702 4.544631 -0.76105869 4
12.17545 8.4156361 -0.51821923 4
6.8194146 3.1080532 -1.0457186 5
7.5867667 5.2430029 -0.96237606 5
5.2274151 2.3758757 -1.2141616 5
5.4470673 3.7636061 -1.1612731 6
4.2879362 1.9407489 -1.3387828 5
4.2889547 2.9650767 -1.2903548 5
26.980539 14.699935 7.0741205 140
60.437614 32.93985 10.871646 18
72.616776 39.577381 7.2324014 85
59.859795 48.019554 9.4046755 36
21.517157 11.723652 0.427104 6
10.865512 5.9185486 -0.6487658 4
13.974073 11.181531 -0.31178975 5
7.1792574 3.9079978 -0.99790919 5
7.9981766 6.399631 -0.89134812 5
5.3708448 2.9216425 -1.1794635 5
5.5646439 4.4554524 -1.1248296 4
4.3338995 2.3549981 -1.3113583 4
4.2921877 3.44508 -1.2606295 5
57.622425 26.240389 13.439281 26
75.415627 34.40527 11.64496 87
76.318451 52.902058 16.351007 1
32.072517 14.647903 2.456953 20
45.755798 31.668526 5.8449702 6
18.044485 8.2469187 0 4
9.9568768 4.5463686 -0.76105869 4
12.17545 8.4156361 -0.51821923 4
6.8194146 3.1080532 -1.0457186 5
7.5867634 5.2430081 -0.96237606 5
5.2274151 2.3758757 -1.2141616 5
5.4464107 3.7645569 -1.1612731 6
4.2879362 1.9407489 -1.3387828 5
4.2884374 2.9658253 -1.2903548 5
26.980539 14.699935 7.0741205 140
72.183075 39.341022 12.98549 1
72.616776 39.577381 7.2324014 85
61.670517 49.489986 9.6906605 1
21.517157 11.723652 0.427104 6
10.865512 5.9185486 -0.6487658 4
13.972122 11.183969 -0.31178975 5
7.1792574 3.9079978 -0.99790919 5
7.9970589 6.4010267 -0.89134812 5
5.3703346 2.92258 -1.1794635 5
5.5638666 4.4564233 -1.1248296 4
4.3334885 2.3557546 -1.3113583 4
4.2921877 3.44508 -1.2606295 5
58.157143 26.25136 13.543672 24
61.038036 27.602795 9.4098396 69
43.707153 30.081554 9.3399639 16
32.041397 14.505479 2.4508648 13
45.719181 31.419451 5.8269391 9
18.089951 8.1952848 0 5
9.9628086 4.5092154 -0.7603628 4
12.211531 8.3808718 -0.51857001 4
6.8229127 3.0823679 -1.0446774 5
7.6041083 5.2178211 -0.96237606 5
5.2285738 2.3555195 -1.2126009 5
5.4629235 3.7492628 -1.1621413 5
4.3009291 1.9294639 -1.3408488 5
4.3062453 2.9570839 -1.2927724 5
27.046286 14.619649 7.0786128 54
67.931885 36.732502 12.198409 16
72.837448 39.384922 7.2413349 85
60.099613 47.902412 9.4186697 18
21.538324 11.642726 0.42675495 6
10.869704 5.8741779 -0.64784688 4
13.958271 11.097117 -0.31065533 5
7.1921773 3.8841691 -0.99790919 5
8.0045996 6.3636174 -0.88982594 4
5.3713574 2.9000936 -1.1775589 5
5.5728197 4.4333324 -1.1236551 4
4.3497806 2.3459539 -1.3139449 4
4.3016849 3.4293077 -1.2600679 5
58.157143 26.25136 13.543672 24
75.599236 34.186611 11.655746 1
76.483322 52.641705 16.348839 16
32.041397 14.505479 2.4508648 13
45.713696 31.427429 5.8269391 9
18.089951 8.1952848 0 5
9.9628086 4.5092154 -0.7603628 4
12.211531 8.3808718 -0.51857001 4
6.8223748 3.0835588 -1.0446774 5
7.6041083 5.2178211 -0.96237606 5
5.2281623 2.356432 -1.2126009 5
5.4629235 3.7492628 -1.1621413 5
4.3005924 1.9302146 -1.3408488 5
4.3062453 2.9570839 -1.2927724 5
27.043734 14.62437 7.0786128 54
72.486588 39.211575 13.017879 16
72.830574 39.397636 7.2413349 85
61.688766 49.169201 9.6678429 1
21.536291 11.646485 0.42675495 6
10.868678 5.8760748 -0.64784688 4
13.958271 11.097117 -0.31065533 5
7.1914988 3.8854241 -0.99790919 5
8.0034885 6.3650141 -0.88982594 4
5.3713574 2.9000936 -1.1775589 5
