# .PCD v0.7 - Point Cloud Data file format
VERSION 0.7
FIELDS x y z intensity
SIZE 4 4 4 4
TYPE F F F F
COUNT 1 1 1 1
WIDTH 1470
HEIGHT 1
VIEWPOINT 0 0 0 1 0 0 0
POINTS 1470
DATA ascii
35.583187 41.158417 6.6665125 3
22.59226 26.083494 1.8066372 73
10.04084 8.1301098 -0.67751527 4
13.572839 15.667507 -0.36122411 5
6.5006719 5.2606115 -1.0210315 5
6.9894576 8.0675974 -0.92896783 7
4.8149323 3.8942153 -1.194701 5
4.7791615 5.5199647 -1.1522359 21
3.8321979 3.0976355 -1.3100652 5
3.6794667 4.2586403 -1.2892674 5
19.81259 19.93453 6.9883976 25
41.88628 29.257978 7.1757641 9
31.196465 31.346388 7.7838812 22
17.236692 12.056388 0 23
25.377962 25.446049 1.2537644 1
9.2127695 6.4391518 -0.78158551 4
11.248447 11.273084 -0.55767757 5
6.2532139 4.3641376 -1.0641133 5
6.670805 6.6842322 -0.98555642 3
4.7341566 3.2966695 -1.2198838 5
4.782589 4.7930517 -1.1877544 5
3.8607543 2.6794894 -1.3367168 5
3.7127736 3.7228184 -1.3012336 5
17.05398 19.840961 6.9912877 24
17.98348 20.849096 5.3402371 23
40.758045 47.145092 7.636735 36
22.59226 26.083494 1.8066372 73
10.042258 8.1283569 -0.67751527 4
13.57557 15.665142 -0.36122411 5
6.5015893 5.2594776 -1.0210315 5
6.9908652 8.0663767 -0.92896783 7
4.8149323 3.8942153 -1.194701 5
4.7801251 5.5191307 -1.1522359 21
3.8327386 3.0969665 -1.3100652 5
3.6802099 4.257998 -1.2892674 5
19.892349 19.875538 6.9920211 7
41.862003 29.024143 7.1541924 13
31.255154 31.186865 7.7713046 22
45.603111 31.641064 3.8691275 26
17.186249 11.932005 0 24
25.378111 25.269159 1.2494019 3
9.2249413 6.3998494 -0.7807157 4
11.248774 11.194972 -0.55574852 5
6.2643375 4.3394661 -1.0634191 5
6.6993828 6.6661682 -0.98633772 4
4.7436228 3.2787352 -1.2193636 5
4.7940569 4.7711163 -1.1864522 5
3.8780053 2.6714427 -1.3394715 5
3.729183 3.7132604 -1.3024424 5
17.255878 19.934717 7.0455694 30
62.307625 50.098728 12.628826 6
18.163958 20.910347 5.3721695 64
35.70546 41.009628 6.6625571 13
22.747164 26.07786 1.8117399 59
10.066678 8.0901251 -0.67725271 5
13.638384 15.627076 -0.36144224 5
6.5237789 5.2398572 -1.0216399 5
7.0124326 8.0344191 -0.92809808 6
4.832324 3.8804562 -1.1956532 4
4.7977395 5.5005503 -1.1518444 22
3.8397574 3.0805476 -1.3087718 5
3.6934528 4.2432866 -1.2887059 5
22.15061 22.132223 7.7868295 3
46.067562 31.93947 7.8733692 2
31.255154 31.186865 7.7713046 22
45.603111 31.641064 3.8691275 26
17.186249 11.932005 0 24
25.378111 25.269159 1.2494019 3
9.2249413 6.3998494 -0.7807157 4
11.248774 11.194972 -0.55574852 5
6.2643375 4.3394661 -1.0634191 5
6.6993828 6.6661682 -0.98633772 4
4.7436228 3.2787352 -1.2193636 5
4.7940569 4.7711163 -1.1864522 5
3.8780053 2.6714427 -1.3394715 5
3.729183 3.7132604 -1.3024424 5
17.255878 19.934717 7.0455694 30
18.163958 20.910347 5.3721695 64
35.70546 41.009628 6.6625571 13
22.747164 26.07786 1.8117399 59
10.066678 8.0901251 -0.67725271 5
13.638384 15.627076 -0.36144224 5
6.5237789 5.2398572 -1.0216399 5
7.0124326 8.0344191 -0.92809808 6
4.832324 3.8804562 -1.1956532 4
4.7977395 5.5005503 -1.1518444 22
3.8397574 3.0805476 -1.3087718 5
3.6934528 4.2432866 -1.2887059 5
19.930616 19.768326 6.9799423 9
41.900791 28.824219 7.1427107 20
31.365751 31.068636 7.7704368 1
45.511284 31.330887 3.8515577 18
17.131029 11.80088 0 21
25.470556 25.175974 1.2494019 4
9.2401171 6.3603425 -0.78001988 4
11.282622 11.146644 -0.55539781 5
6.2802005 4.3164768 -1.0634191 5
6.711391 6.6293349 -0.98451459 5
4.7576261 3.2627082 -1.2198838 5
4.8132625 4.7552447 -1.1868862 5
3.8818147 2.6531482 -1.3374054 4
3.7444921 3.7012734 -1.3030468 5
17.333586 19.876797 7.0475078 31
62.251488 49.679028 12.580438 6
18.34066 20.958155 5.4017181 47
56.346405 44.966743 6.3039751 13
36.80447 41.960548 6.8390169 32
10.066983 8.0298262 -0.67528355 4
13.70547 15.588251 -0.36170405 6
6.5390592 5.2128181 -1.0210315 4
7.036902 8.0030489 -0.92744565 6
4.844595 3.8611901 -1.1951771 5
4.8113527 5.4755049 -1.1502783 22
3.8510225 3.0664535 -1.3087718 5
3.707376 4.2278881 -1.2881444 5
19.930616 19.768326 6.9799423 9
46.094566 31.708677 7.8580604 2
31.365751 31.068636 7.7704368 1
45.511284 31.330887 3.8515577 18
17.131029 11.80088 0 21
25.470556 25.175974 1.2494019 4
9.2412262 6.3587298 -0.78001988 4
11.282622 11.146644 -0.55539781 5
6.2802005 4.3164768 -1.0634191 5
6.7113953 6.6293306 -0.98451459 5
4.7576261 3.2627082 -1.2198838 5
4.8140926 4.7544041 -1.1868862 5
3.8818147 2.6531482 -1.3374054 4
3.7451379 3.7006197 -1.3030468 5
17.337055 19.873774 7.0475078 31
18.344316 20.954952 5.4017181 47
36.811794 41.954124 6.8390169 32
37.64185 42.824879 2.9862895 1
10.066983 8.0298262 -0.67528355 4
13.70819 15.585859 -0.36170405 6
6.5390592 5.2128181 -1.0210315 4
7.0382986 8.0018206 -0.92744565 6
4.8452687 3.8603444 -1.1951771 5
4.8123083 5.4746647 -1.1502783 22
3.8515575 3.0657811 -1.3087718 5
3.707376 4.2278881 -1.2881444 5
72.913948 49.706337 18.733561 1
19.996042 19.695229 6.978734 27
42.489822 29.011381 7.2258668 62
44.743134 30.572521 3.7774525 18
17.118456 11.704333 0 16
25.774023 25.298697 1.2599591 1
9.2448273 6.3137813 -0.7784543 5
11.294714 11.080943 -0.55408251 5
6.2931833 4.2931347 -1.0630721 5
6.7327209 6.6041226 -0.98425418 4
4.7689857 3.2460814 -1.2198838 5
4.8306594 4.7375708 -1.1868862 5
3.8990123 2.6449714 -1.3401601 4
3.7528403 3.6824253 -1.3012336 5
17.462097 19.876644 7.0701246 29
18.573124 21.067541 5.4474711 35
56.600632 44.847115 6.3148694 1
14.633755 16.556856 2.7050002 5
20.898729 16.554337 0.46475756 6
34.127808 38.554077 2.69661 6
10.098866 7.9977369 -0.67554611 5
13.754227 15.528556 -0.36148587 6
6.5474849 5.1822624 -1.0195103 5
7.0595846 7.9697437 -0.9265759 6
4.8587141 3.8434079 -1.1951771 5
4.8281183 5.454134 -1.1494952 22
3.8641305 3.0538146 -1.3094186 5
3.7205005 4.2130942 -1.2875829 5
72.913948 49.706337 18.733561 1
19.996042 19.695229 6.978734 27
42.489822 29.011381 7.2258668 62
44.743134 30.572521 3.7774525 18
17.118456 11.704333 0 16
25.774023 25.298697 1.2599591 1
9.2437239 6.3153944 -0.7784543 5
11.294714 11.080943 -0.55408251 5
6.2931833 4.2931347 -1.0630721 5
6.732717 6.6041274 -0.98425418 4
4.7689857 3.2460814 -1.2198838 5
4.8298321 4.7384138 -1.1868862 5
3.8990123 2.6449714 -1.3401601 4
3.7521977 3.6830802 -1.3012336 5
17.45863 19.879692 7.0701246 29
18.569447 21.070784 5.4474711 35
36.993427 41.88018 6.8469267 18
20.898729 16.554337 0.46475756 6
37.843208 42.767132 2.9909997 3
10.098866 7.9977369 -0.67554611 5
13.751515 15.530956 -0.36148587 6
6.5474849 5.1822624 -1.0195103 5
7.0581937 7.9709754 -0.9265759 6
4.8580437 3.8442559 -1.1951771 5
4.8271661 5.4549766 -1.1494952 22
3.8635974 3.0544891 -1.3094186 5
3.7205005 4.2130942 -1.2875829 5
72.971039 49.391621 18.706034 36
20.047375 19.61524 6.9739027 17
39.276218 26.627041 6.6639557 4
44.28701 30.045977 3.7304845 9
17.119938 11.622234 0 12
9.2563581 6.2791095 -0.77775848 5
11.326031 11.038195 -0.55381948 5
6.3032837 4.2694669 -1.0623779 5
6.7403359 6.5678787 -0.98217046 4
4.7776971 3.2288811 -1.2193636 5
4.8367057 4.7137771 -1.1847156 5
3.9017785 2.6280048 -1.3380942 4
3.769599 3.6756999 -1.3030468 5
17.612417 19.921215 7.1056662 26
18.380301 20.717155 5.3716927 15
14.65602 16.477419 2.6995237 16
20.843491 16.398397 0.46231422 6
34.193962 38.385143 2.6922922 41
10.095894 7.9410558 -0.67357695 5
13.801279 15.483401 -0.36144224 6
6.5685363 5.163589 -1.0201187 5
7.0713358 7.9326477 -0.92483622 5
4.864975 3.8235762 -1.1937486 4
4.8452291 5.4389391 -1.1494952 22
3.8756053 3.0431511 -1.3100652 5
3.7312169 4.1970892 -1.2864598 5
72.971039 49.391621 18.706034 36
20.047375 19.61524 6.9739027 17
42.634979 28.90366 7.2342172 16
44.28701 30.045977 3.7304845 9
17.119938 11.622234 0 12
9.2563581 6.2791095 -0.77775848 5
11.326031 11.038195 -0.55381948 5
6.3025389 4.2705669 -1.0623779 5
6.7403359 6.5678787 -0.98217046 4
4.7771335 3.2297149 -1.2193636 5
4.8367057 4.7137771 -1.1847156 5
3.90132 2.628686 -1.3380942 4
3.769599 3.6756999 -1.3030468 5
17.612417 19.921215 7.1056662 26
18.380301 20.717155 5.3716927 15
22.489342 25.287907 4.144969 6
20.840628 16.402035 0.46231422 6
34.193962 38.385143 2.6922922 41
10.094508 7.9428182 -0.67357695 5
13.79858 15.485806 -0.36144224 6
6.5676351 5.1647348 -1.0201187 5
7.0699515 7.9338813 -0.92483622 5
4.864975 3.8235762 -1.1937486 4
4.8442793 5.4397845 -1.1494952 22
3.8750741 3.0438273 -1.3100652 5
3.7304845 4.1977406 -1.2864598 5
72.836464 48.930702 18.627611 66
20.160955 19.589098 6.9896054 7
39.401787 26.511887 6.6695223 28
43.539284 29.317373 3.6588147 3
17.075386 11.505146 0 8
21.548294 20.864336 1.0461996 10
9.2678738 6.2398 -0.77688867 4
11.33936 10.974264 -0.55259186 4
6.3132968 4.24578 -1.0616838 5
6.7703671 6.5512285 -0.98321235 5
4.7883782 3.2130198 -1.2193636 5
4.8531299 4.6968651 -1.1847156 5
3.9144697 2.6177199 -1.3394715 4
3.7771807 3.6574547 -1.3012336 5
17.791031 19.982288 7.1496081 24
18.441063 20.640057 5.3683567 9
14.715103 16.428009 2.6998281 23
20.881996 16.316877 0.46196517 5
34.282742 38.215374 2.6887598 30
10.114303 7.9013872 -0.67305189 4
13.867576 15.454294 -0.36183494 7
6.5719304 5.1310911 -1.017989 5
7.0959406 7.9073005 -0.92461878 5
4.8840981 3.8110991 -1.1951771 5
4.8566494 5.4154849 -1.1479292 22
3.8894849 3.0332508 -1.3113583 6
3.7402451 4.1792431 -1.2847753 5
72.836464 48.930702 18.627611 66
20.160955 19.589098 6.9896054 7
43.436066 29.225878 7.3528624 1
43.539284 29.317373 3.6588147 3
17.075386 11.505146 0 8
21.548294 20.864336 1.0461996 10
9.2678738 6.2398 -0.77688867 4
11.33936 10.974264 -0.55259186 4
6.3140383 4.2446785 -1.0616838 5
6.7703671 6.5512285 -0.98321235 5
4.788939 3.2121842 -1.2193636 5
4.8531299 4.6968651 -1.1847156 5
3.9149265 2.6170371 -1.3394715 4
3.7771807 3.6574547 -1.3012336 5
17.791031 19.982288 7.1496081 24
18.441063 20.640057 5.3683567 9
22.552649 25.181522 4.1404057 4
20.884846 16.313234 0.46196517 5
34.282742 38.215374 2.6887598 30
10.115683 7.8996215 -0.67305189 4
13.870269 15.451879 -0.36183494 7
6.5728259 5.1299448 -1.017989 5
7.097321 7.9060621 -0.92461878 5
4.8840981 3.8110991 -1.1951771 5
4.857594 5.4146371 -1.1479292 22
3.8900144 3.0325723 -1.3113583 6
3.7409744 4.1785903 -1.2847753 5
72.363846 48.247501 18.463497 40
20.274599 19.562403 7.0053082 26
39.17907 26.16386 6.6162882 76
44.039494 29.431244 3.6922143 9
17.098814 11.434358 0 5
21.57597 20.745697 1.0440184 27
9.2916718 6.208796 -0.77706259 4
11.357786 10.915568 -0.55162734 5
6.3267565 4.2212396 -1.0613368 5
6.7842321 6.5189395 -0.98191005 4
4.7919765 3.1900339 -1.2172829 5
4.864172 4.6747766 -1.1834133 5
3.9280455 2.6060088 -1.3408488 4
3.791672 3.6459296 -1.301838 5
18.656954 20.808466 7.468833 13
18.54582 20.612055 5.3778882 9
54.884933 42.575195 6.0741014 1
14.787313 16.393129 2.7025661 16
20.896229 16.205002 0.46096164 5
26.718079 29.573099 2.0868962 31
10.129382 7.8535566 -0.67213291 4
13.910713 15.38853 -0.36148587 6
6.6024637 5.116087 -1.0198146 5
7.1181965 7.8738461 -0.92374897 5
4.8934898 3.7910221 -1.1942247 5
4.8698483 5.3903146 -1.1463631 22
3.8986661 3.0174978 -1.3107117 5
3.7555377 4.1655064 -1.2847753 5
72.363846 48.247501 18.463497 40
20.274599 19.562403 7.0053082 26
39.17907 26.16386 6.6162882 76
44.039494 29.431244 3.6922143 9
17.098814 11.434358 0 5
21.57597 20.745697 1.0440184 27
9.292757 6.2071738 -0.77706259 4
11.357786 10.915568 -0.55162734 5
6.3267565 4.2212396 -1.0613368 5
6.784236 6.5189347 -0.98191005 4
4.7919765 3.1900339 -1.2172829 5
4.8649879 4.6739273 -1.1834133 5
3.9280455 2.6060088 -1.3408488 4
3.7923083 3.6452677 -1.301838 5
18.660585 20.80521 7.468833 13
22.439798 24.932556 6.5074162 1
19.191154 21.269764 3.5081944 5
20.896229 16.205002 0.46096164 5
30.780455 34.058643 2.404052 4
10.129382 7.8535566 -0.67213291 4
13.913399 15.386102 -0.36148587 6
6.6024637 5.116087 -1.0198146 5
7.1195707 7.8726034 -0.92374897 5
4.8941517 3.7901683 -1.1942247 5
4.8707895 5.3894649 -1.1463631 22
3.8991926 3.0168171 -1.3107117 5
3.7555377 4.1655064 -1.2847753 5
72.578949 48.007587 18.473364 37
20.382952 19.523203 7.0179911 23
39.093079 25.89978 6.5856705 69
17.19478 11.407534 0 3
21.662706 20.676828 1.0445418 26
9.309206 6.168942 -0.77654076 4
11.377835 10.854893 -0.55066276 4
6.3339243 4.1925602 -1.0599484 5
6.8026867 6.4888754 -0.98112863 5
4.8015947 3.1711028 -1.2167627 5
4.8767424 4.6509657 -1.1821109 5
3.9355619 2.5902748 -1.3401601 4
3.7968719 3.622967 -1.2988162 5
18.594261 20.578964 7.4119673 24
14.713684 16.225784 4.2469306 1
54.947857 42.302338 6.0638604 1
14.865168 16.35276 2.7053044 10
20.900015 16.085619 0.45973998 6
26.7995 29.435211 2.0844102 68
10.148205 7.8087668 -0.67147654 5
13.924261 15.285104 -0.36030784 6
6.607399 5.0812669 -1.0176849 4
7.1332889 7.8298802 -0.92179185 5
4.9080105 3.7722046 -1.1942247 4
4.8888493 5.36975 -1.1459715 21
3.9121392 3.0039756 -1.3113583 5
3.7658708 4.1462998 -1.2830907 6
72.578949 48.007587 18.473364 37
20.382952 19.523203 7.0179911 23
39.093079 25.89978 6.5856705 69
17.19478 11.407534 0 3
21.662706 20.676828 1.0445418 26
9.309206 6.168942 -0.77654076 4
11.377835 10.854893 -0.55066276 4
6.3339243 4.1925602 -1.0599484 5
6.8026867 6.4888754 -0.98112863 5
4.8015947 3.1711028 -1.2167627 5
4.8767424 4.6509657 -1.1821109 5
3.9355619 2.5902748 -1.3401601 4
3.7968719 3.622967 -1.2988162 5
18.594261 20.578964 7.4119673 24
20.281256 22.368116 5.8568654 1
19.155506 21.074402 3.4875062 8
20.900015 16.085619 0.45973998 6
10.148205 7.8087668 -0.67147654 5
13.924261 15.285104 -0.36030784 6
6.607399 5.0812669 -1.0176849 4
7.1332889 7.8298802 -0.92179185 5
4.9080105 3.7722046 -1.1942247 4
4.8888493 5.36975 -1.1459715 21
3.9121392 3.0039756 -1.3113583 5
3.7658708 4.1462998 -1.2830907 6
67.980583 44.625977 17.262754 18
20.498434 19.497078 7.0342979 25
39.096363 25.706041 6.5710573 48
17.157227 11.296592 0 4
21.727497 20.59421 1.0441929 29
9.3306828 6.1364088 -0.77654076 4
11.402961 10.803082 -0.55004901 5
6.3526602 4.1731424 -1.0606426 5
6.8162713 6.4565392 -0.97982639 5
4.8187728 3.1583397 -1.2183232 5
4.8983092 4.6389952 -1.1834133 6
3.946593 2.5778337 -1.3408488 4
3.8147762 3.6146991 -1.3006294 5
14.657006 16.106583 5.8177805 24
14.771886 16.176136 4.247407 24
14.87023 16.24402 2.695873 19
14.995369 16.352133 1.1609423 13
10.161512 7.7626877 -0.67055762 4
13.825488 15.070596 -0.35638103 6
6.6329856 5.0641932 -1.0189018 4
7.1487966 7.7920809 -0.92026967 4
4.9152932 3.7505846 -1.1927962 4
4.9025612 5.3471885 -1.1447971 22
3.9187596 2.9873748 -1.3100652 5
3.7770355 4.1295309 -1.2819676 5
67.980583 44.625977 17.262754 18
20.498434 19.497078 7.0342979 25
39.096363 25.706041 6.5710573 48
17.157227 11.296592 0 4
21.727497 20.59421 1.0441929 29
9.3296108 6.1380372 -0.77654076 4
11.402961 10.803082 -0.55004901 5
6.3526602 4.1731424 -1.0606426 5
6.8162675 6.4565439 -0.97982639 5
4.8187728 3.1583397 -1.2183232 5
4.8974991 4.6398497 -1.1834133 6
3.946593 2.5778337 -1.3408488 4
3.8141451 3.615365 -1.3006294 5
14.654196 16.109138 5.8177805 24
14.769062 16.178715 4.247407 24
14.867394 16.246614 2.695873 19
14.992515 16.354752 1.1609423 13
10.161512 7.7626877 -0.67055762 4
13.822857 15.073009 -0.35638103 6
6.6329856 5.0641932 -1.0189018 4
7.1474361 7.7933292 -0.92026967 4
4.914639 3.7514427 -1.1927962 4
4.9016271 5.3480439 -1.1447971 22
3.9182382 2.9880586 -1.3100652 5
3.7770355 4.1295309 -1.2819676 5
67.060753 43.704704 16.992172 16
20.626451 19.488981 7.0560403 26
39.015541 25.46801 6.5432229 38
42.382526 27.686516 3.5286956 6
17.196686 11.241 0 4
21.802944 20.528896 1.0445418 28
9.3436499 6.1029768 -0.77601892 4
11.416891 10.744657 -0.54899675 5
6.3602409 4.1479988 -1.0596013 5
6.8412619 6.4373136 -0.98034734 5
4.8210177 3.1370139 -1.2162424 5
4.9021044 4.6134562 -1.1808084 5
3.9531021 2.5634265 -1.3401601 4
3.8243475 3.6010332 -1.300025 5
14.701011 16.053329 5.8151956 27
14.825953 16.133266 4.2483602 24
53.040497 40.261986 5.822875 16
14.929592 16.20635 2.6973941 20
15.016198 16.271912 1.1585871 24
10.179242 7.7229133 -0.6700325 5
13.799874 14.948094 -0.35450485 5
6.6438103 5.037674 -1.017989 4
7.1580434 7.7531095 -0.91831261 5
4.9192271 3.7291956 -1.1908916 4
4.9143152 5.3263125 -1.1436225 21
3.9300508 2.9765062 -1.3107117 5
3.7923577 4.1187768 -1.2825291 5
67.060753 43.704704 16.992172 16
20.626451 19.488981 7.0560403 26
39.015541 25.46801 6.5432229 38
42.382526 27.686516 3.5286956 6
17.196686 11.241 0 4
21.802944 20.528896 1.0445418 28
9.3436499 6.1029768 -0.77601892 4
11.416891 10.744657 -0.54899675 5
6.3595166 4.1491089 -1.0596013 5
6.8412619 6.4373136 -0.98034734 5
4.8204703 3.1378558 -1.2162424 5
4.9021044 4.6134562 -1.1808084 5
3.9526548 2.5641162 -1.3401601 4
3.8243475 3.6010332 -1.300025 5
14.701011 16.053329 5.8151956 27
14.825953 16.133266 4.2483602 24
14.929592 16.20635 2.6973941 20
15.016198 16.271912 1.1585871 24
10.177893 7.7246895 -0.6700325 5
13.797269 14.950499 -0.35450485 5
6.642931 5.0388331 -1.017989 4
7.1566901 7.7543583 -0.91831261 5
4.9192271 3.7291956 -1.1908916 4
4.9133859 5.3271704 -1.1436225 21
3.9295313 2.9771919 -1.3107117 5
3.7916389 4.1194386 -1.2825291 5
68.652397 44.401249 17.356237 1
21.306437 19.991243 7.2650104 30
38.952511 25.233419 6.5178237 38
42.487282 27.543831 3.5293915 4
17.210648 11.164583 0 4
21.876297 20.454372 1.0446291 19
9.3523359 6.0621891 -0.77497518 4
11.434252 10.685972 -0.54803222 4
6.380198 4.1309185 -1.0606426 5
6.8564253 6.4066024 -0.97930551 5
4.8416691 3.1276367 -1.2188435 5
4.9199767 4.5979981 -1.1812426 5
3.9696689 2.5555 -1.3429149 5
3.8333519 3.5843468 -1.2988162 5
18.968582 20.570807 7.4778805 12
45.539345 34.330879 9.0067644 4
19.690054 21.278908 5.6233344 57
15.171669 16.354284 2.7308605 5
15.127277 16.277929 1.162774 6
10.192832 7.6801038 -0.66924489 5
13.791529 14.839979 -0.35302138 6
6.6604795 5.015614 -1.017989 5
7.1735454 7.718379 -0.9170078 4
4.9361372 3.7149525 -1.1918439 4
4.9336305 5.3117976 -1.144014 22
3.936039 2.9605553 -1.3094186 5
3.7977219 4.0972376 -1.2797215 5
68.652397 44.401249 17.356237 1
21.306437 19.991243 7.2650104 30
38.952511 25.233419 6.5178237 38
42.487282 27.543831 3.5293915 4
17.210648 11.164583 0 4
21.876297 20.454372 1.0446291 19
9.3523359 6.0621891 -0.77497518 4
11.434252 10.685972 -0.54803222 4
6.3809195 4.1298046 -1.0606426 5
6.8564253 6.4066024 -0.97930551 5
4.8422146 3.1267917 -1.2188435 5
4.9199767 4.5979981 -1.1812426 5
3.9701149 2.5548069 -1.3429149 5
3.8333519 3.5843468 -1.2988162 5
18.968582 20.570807 7.4778805 12
19.690054 21.278908 5.6233344 57
19.300367 20.806633 3.4753366 26
21.347868 22.974426 1.6417788 1
10.194172 7.6783247 -0.66924489 5
13.794115 14.837577 -0.35302138 6
6.661355 5.014452 -1.017989 5
7.1748919 7.7171268 -0.9170078 4
4.9361372 3.7149525 -1.1918439 4
4.9345574 5.310936 -1.144014 22
3.9365554 2.9598682 -1.3094186 5
3.7984369 4.0965748 -1.2797215 5
68.330963 43.839031 17.23419 37
21.356489 19.891521 7.2571588 26
38.936428 25.020897 6.4997311 37
42.401257 27.267881 3.5139093 1
17.203093 11.070321 0 5
21.954782 20.377457 1.0448036 43
9.3702955 6.0251746 -0.77462721 5
11.451363 10.623597 -0.54697996 4
6.38976 4.1023803 -1.0596013 5
6.8816829 6.3831205 -0.97956598 5
4.8454022 3.1037531 -1.2167627 5
4.9367957 4.5799351 -1.1812426 5
3.9713442 2.5350733 -1.3401601 5
3.8429086 3.5669706 -1.2976074 5
14.86974 16.006121 5.8365202 7
45.656986 34.145412 9.0040331 39
18.922997 20.2999 5.3826542 26
15.255224 16.323956 2.7351201 20
20.924364 15.644074 0.45542052 5
19.618618 20.958281 1.502696 36
10.204247 7.6274586 -0.6680634 5
13.803991 14.739474 -0.35188699 5
6.6717358 4.9840641 -1.0167722 4
7.1912169 7.6780486 -0.91548562 4
4.9457865 3.6938992 -1.1908916 4
4.9472446 5.2855992 -1.1424479 22
3.955121 2.951194 -1.3120049 5
3.813426 4.0826254 -1.2797215 5
68.330963 43.839031 17.23419 37
21.356489 19.891521 7.2571588 26
38.936428 25.020897 6.4997311 37
42.401257 27.267881 3.5139093 1
17.203093 11.070321 0 5
21.954782 20.377457 1.0448036 43
9.3713474 6.0235391 -0.77462721 5
11.451363 10.623597 -0.54697996 4
6.38976 4.1023803 -1.0596013 5
6.8816867 6.3831158 -0.97956598 5
4.8454022 3.1037531 -1.2167627 5
4.9375949 4.579073 -1.1812426 5
3.9713442 2.5350733 -1.3401601 5
3.8435311 3.5662999 -1.2976074 5
19.095093 20.549135 7.4966197 1
45.656986 34.145412 9.0040331 39
18.926538 20.296597 5.3826542 26
19.515652 20.877415 3.4996758 1
20.924364 15.644074 0.45542052 5
19.622276 20.954857 1.502696 36
10.204247 7.6274586 -0.6680634 5
13.806564 14.737064 -0.35188699 5
6.6717358 4.9840641 -1.0167722 4
7.1925569 7.6767936 -0.91548562 4
4.9464312 3.6930361 -1.1908916 4
4.9481668 5.2847357 -1.1424479 22
3.9556363 2.9505038 -1.3120049 5
3.813426 4.0826254 -1.2797215 5
68.568771 43.671303 17.257561 44
20.962946 19.395493 7.1013374 20
39.094322 24.939568 6.5122566 25
41.816631 26.696394 3.4580696 2
17.222855 11.002451 0 5
22.024071 20.306231 1.0448909 61
9.3870659 5.9897485 -0.7742793 4
11.473671 10.573711 -0.54636621 5
6.4033284 4.0811687 -1.0596013 5
6.8918471 6.3501487 -0.97800326 5
4.8618617 3.0915999 -1.2183232 5
4.9491324 4.5593367 -1.1803744 5
3.9858222 2.525744 -1.3422261 4
3.8535528 3.5518899 -1.297003 5
14.989852 16.022913 5.8617225 12
45.839352 34.045349 9.0176907 46
19.136486 20.385839 5.4231648 43
19.685093 20.919218 3.5176258 37
20.933983 15.543312 0.45450428 5
19.631731 20.82608 1.4981167 60
10.221466 7.5876269 -0.66753829 4
13.807348 14.640271 -0.35066527 4
6.6862335 4.9604344 -1.0164679 5
7.2196827 7.6547122 -0.91570312 4
4.9586506 3.6766129 -1.1908916 4
4.9639726 5.2665 -1.1420565 22
3.9615169 2.9344971 -1.3107117 5
3.8236089 4.0664043 -1.2785984 5
68.568771 43.671303 17.257561 44
20.962946 19.395493 7.1013374 20
39.094322 24.939568 6.5122566 25
41.816631 26.696394 3.4580696 2
17.222855 11.002451 0 5
22.024071 20.306231 1.0448909 61
9.3860197 5.9913864 -0.7742793 4
11.473671 10.573711 -0.54636621 5
6.4033284 4.0811687 -1.0596013 5
6.8918428 6.3501534 -0.97800326 5
4.8618617 3.0915999 -1.2183232 5
4.9483366 4.5602002 -1.1803744 5
3.9858222 2.525744 -1.3422261 4
3.8529327 3.5525622 -1.297003 5
19.037516 20.35849 7.4488006 1
45.839352 34.045349 9.0176907 46
19.132929 20.389177 5.4231648 43
19.681442 20.922657 3.5176258 37
20.933983 15.543312 0.45450428 5
19.628096 20.829504 1.4981167 60
10.221466 7.5876269 -0.66753829 4
13.804792 14.64268 -0.35066527 4
6.6862335 4.9604344 -1.0164679 5
7.2183471 7.6559725 -0.91570312 4
4.9580088 3.6774781 -1.1908916 4
4.9630532 5.2673664 -1.1420565 22
3.961005 2.9351883 -1.3107117 5
3.8236089 4.0664043 -1.2785984 5
68.708405 43.423847 17.254444 65
21.010872 19.304142 7.0946937 27
39.352676 24.911516 6.5407867 23
17.240034 10.928883 0 5
22.111403 20.244415 1.0456761 47
9.4047689 5.9572535 -0.77410537 4
11.484709 10.509978 -0.5451386 5
6.4091635 4.053503 -1.0582131 5
6.9121337 6.324379 -0.97774285 5
4.8684855 3.0720036 -1.2172829 5
4.9569612 4.5362492 -1.1786379 5
4.0007219 2.5156479 -1.3442923 5
3.8599451 3.5341749 -1.29519 5
45.840645 33.798683 8.994668 13
18.946135 20.049313 5.350246 14
19.78336 20.884457 3.5227981 31
20.849266 15.367819 0.45149371 5
19.686937 20.74637 1.49707 68
10.235828 7.543016 -0.66675061 4
13.756025 14.489241 -0.3481347 5
6.6995115 4.9341226 -1.0158594 5
7.2381716 7.6235018 -0.91483331 5
4.9668622 3.6572394 -1.1899393 4
4.983108 5.251802 -1.1424479 21
3.9712265 2.921344 -1.3107117 5
3.83778 4.0530329 -1.2785984 5
68.708405 43.423847 17.254444 65
21.010872 19.304142 7.0946937 27
39.352676 24.911516 6.5407867 23
17.240034 10.928883 0 5
22.111403 20.244415 1.0456761 47
9.4047689 5.9572535 -0.77410537 4
11.484709 10.509978 -0.5451386 5
6.4091635 4.053503 -1.0582131 5
6.9121337 6.324379 -0.97774285 5
4.8684855 3.0720036 -1.2172829 5
4.9569612 4.5362492 -1.1786379 5
4.0007219 2.5156479 -1.3442923 5
3.8599451 3.5341749 -1.29519 5
18.946135 20.049313 5.350246 14
19.78336 20.884457 3.5227981 31
20.849266 15.367819 0.45149371 5
19.686937 20.74637 1.49707 68
10.235828 7.543016 -0.66675061 4
13.756025 14.489241 -0.3481347 5
6.6995115 4.9341226 -1.0158594 5
7.2381716 7.6235018 -0.91483331 5
4.9668622 3.6572394 -1.1899393 4
4.983108 5.251802 -1.1424479 21
3.9712265 2.921344 -1.3107117 5
3.83778 4.0530329 -1.2785984 5
68.927933 43.22662 17.271584 13
21.194611 19.336973 7.1339512 35
39.108143 24.565964 6.4858136 23
17.286545 10.87396 0 5
22.170845 20.157026 1.0451527 32
9.4212818 5.9217353 -0.77375746 4
11.504685 10.4547 -0.54434943 5
6.4253716 4.0324206 -1.0585601 5
6.9231286 6.2901778 -0.97618008 4
4.8853998 3.0588789 -1.2188435 5
4.9727659 4.5189185 -1.1786379 5
4.0033584 2.4978561 -1.3422261 5
3.8650808 3.5141492 -1.2927724 6
45.669403 33.426991 8.9380846 4
19.022772 19.99017 5.3521523 21
19.755789 20.673916 1.4968083 39
10.258067 7.5042939 -0.66648811 4
13.725352 14.356199 -0.346084 4
6.7146916 4.9092431 -1.0155553 5
7.2561369 7.5891852 -0.91374606 4
4.9776163 3.638432 -1.189463 4
4.9980006 5.230804 -1.141665 22
3.979449 2.9060407 -1.3100652 5
3.8485453 4.0360832 -1.2774754 5
68.927933 43.22662 17.271584 13
21.194611 19.336973 7.1339512 35
39.108143 24.565964 6.4858136 23
17.286545 10.87396 0 5
22.170845 20.157026 1.0451527 32
9.4212818 5.9217353 -0.77375746 4
11.504685 10.4547 -0.54434943 5
6.4253716 4.0324206 -1.0585601 5
6.9231286 6.2901778 -0.97618008 4
4.8853998 3.0588789 -1.2188435 5
4.9727659 4.5189185 -1.1786379 5
4.0033584 2.4978561 -1.3422261 5
3.8650808 3.5141492 -1.2927724 6
19.022772 19.99017 5.3521523 21
19.755789 20.673916 1.4968083 39
10.258067 7.5042939 -0.66648811 4
13.725352 14.356199 -0.346084 4
6.7146916 4.9092431 -1.0155553 5
7.2561369 7.5891852 -0.91374606 4
4.9776163 3.638432 -1.189463 4
4.9980006 5.230804 -1.141665 22
3.979449 2.9060407 -1.3100652 5
3.8485453 4.0360832 -1.2774754 5
21.306696 19.296619 7.1478424 28
38.987789 24.291563 6.4510202 23
40.373646 25.174402 3.3162956 4
17.402651 10.858154 0 5
22.27425 20.102413 1.0465486 7
9.436574 5.8832092 -0.77323562 4
11.524378 10.395726 -0.54347259 4
6.438005 4.0075364 -1.0582131 5
6.9479823 6.2664266 -0.97644049 5
4.8882647 3.0357981 -1.2167627 5
4.9783292 4.4907641 -1.1760333 5
4.0165763 2.4856923 -1.3436036 5
3.870734 3.4934554 -1.2903548 7
19.25318 20.154659 7.4488006 27
45.847565 33.300014 8.9490118 34
19.170624 19.998276 5.3731222 25
49.586716 36.015659 5.3587708 4
19.871246 20.642742 1.4998176 29
10.269339 7.4549146 -0.66543788 5
13.6912 14.215756 -0.34390244 4
6.7366562 4.8875127 -1.0161636 5
7.282176 7.5607438 -0.91352856 4
4.9948921 3.623045 -1.1904154 4
5.0137167 5.20889 -1.1408819 20
3.9881172 2.8900192 -1.3094186 5
3.8633122 4.0219507 -1.2774754 5
21.306696 19.296619 7.1478424 28
38.987789 24.291563 6.4510202 23
53.509918 33.363747 4.39604 83
17.402651 10.858154 0 5
22.27425 20.102413 1.0465486 7
9.4376001 5.8815622 -0.77323562 4
11.524378 10.395726 -0.54347259 4
6.438005 4.0075364 -1.0582131 5
6.9479861 6.2664218 -0.97644049 5
4.8882647 3.0357981 -1.2167627 5
4.9791131 4.4898953 -1.1760333 5
4.0165763 2.4856923 -1.3436036 5
3.8713439 3.4927797 -1.2903548 7
19.256697 20.151297 7.4488006 27
19.174112 19.99493 5.3731222 25
49.586716 36.015659 5.3587708 4
27.766762 28.837326 2.0961857 1
10.269339 7.4549146 -0.66543788 5
13.693683 14.213367 -0.34390244 4
6.7366562 4.8875127 -1.0161636 5
7.2834949 7.5594726 -0.91352856 4
4.9955244 3.6221731 -1.1904154 4
5.0146255 5.2080145 -1.1408819 20
3.9886215 2.889323 -1.3094186 5
3.8633122 4.0219507 -1.2774754 5
70.652702 43.606884 17.625263 18
21.772539 19.580664 7.2813172 28
39.000748 24.111069 6.4391909 24
40.064651 24.787975 3.2837656 4
70.138504 62.906853 9.8988457 44
17.497847 10.832861 0 8
22.336842 20.01787 1.0461996 8
9.4559498 5.8472714 -0.77306163 4
11.538264 10.335427 -0.54242033 5
6.4519553 3.9850392 -1.0582131 5
6.964262 6.2371531 -0.97565913 5
4.9071631 3.0238416 -1.2188435 5
5.0002561 4.4774165 -1.1773355 5
4.0252285 2.4716563 -1.3436036 5
3.8799 3.4760058 -1.2891461 8
19.243208 19.996933 7.4164906 41
19.311972 19.998507 5.3921862 27
21.89127 22.575642 1.6462275 18
10.28517 7.411726 -0.66478151 4
13.696227 14.117029 -0.34272438 4
6.7456212 4.8581686 -1.0149467 5
7.3011713 7.5250616 -0.91244131 4
5.0041533 3.6018467 -1.189463 4
5.0293393 5.1869307 -1.1400988 20
4.0006447 2.876792 -1.3100652 5
3.8688667 3.9996786 -1.2746677 5
70.652702 43.606884 17.625263 18
21.772539 19.580664 7.2813172 28
39.000748 24.111069 6.4391909 24
53.606964 33.164948 4.394474 6
70.138504 62.906853 9.8988457 44
17.497847 10.832861 0 8
22.336842 20.01787 1.0461996 8
9.4549294 5.8489218 -0.77306163 4
11.538264 10.335427 -0.54242033 5
6.4519553 3.9850392 -1.0582131 5
6.9642582 6.2371578 -0.97565913 5
4.9071631 3.0238416 -1.2188435 5
4.9994745 4.4782891 -1.1773355 5
4.0252285 2.4716563 -1.3436036 5
3.8792934 3.4766829 -1.2891461 8
19.239716 20.000292 7.4164906 41
19.308481 20.001875 5.3921862 27
27.825754 28.707438 2.0934381 173
10.28517 7.411726 -0.66478151 4
13.693762 14.11942 -0.34272438 4
6.7456212 4.8581686 -1.0149467 5
7.2998581 7.5263352 -0.91244131 4
5.0035248 3.60272 -1.189463 4
5.0284338 5.1878085 -1.1400988 20
4.0001421 2.87749 -1.3100652 5
3.8688667 3.9996786 -1.2746677 5
73.295135 44.902664 18.247448 16
21.967602 19.624731 7.3248019 31
39.240864 24.079998 6.4656339 18
40.335785 24.77112 3.2992477 1
70.116539 62.468834 9.8664417 86
17.576277 10.800946 0 8
22.419897 19.958643 1.0469849 7
9.4700222 5.8149276 -0.77271372 4
11.598604 10.320365 -0.54364794 5
6.4587998 3.959743 -1.0571718 5
6.9886184 6.2173362 -0.97618008 5
4.9129896 3.0050035 -1.2178031 5
5.0087814 4.4567742 -1.1760333 5
4.0313497 2.4570458 -1.3429149 5
3.8745003 3.449276 -1.2837067 8
19.460468 20.096016 7.4759412 24
19.504665 20.071518 5.4284072 22
47.366272 33.912933 5.0935993 16
20.905287 14.963205 0.44813415 6
10.293448 7.3659573 -0.66373128 5
13.693374 14.025631 -0.34154636 4
6.7697682 4.8415451 -1.0161636 5
7.3265147 7.50387 -0.91265869 4
5.0154438 3.5861077 -1.189463 4
5.0438857 5.1693368 -1.1397073 20
4.0076962 2.8628061 -1.3094186 6
3.8855052 3.9903204 -1.2757908 6
73.295135 44.902664 18.247448 16
21.967602 19.624731 7.3248019 31
39.240864 24.079998 6.4656339 18
53.746407 33.005268 4.3969097 1
70.105629 62.481068 9.8664417 86
17.576277 10.800946 0 8
22.419897 19.958643 1.0469849 7
9.4700222 5.8149276 -0.77271372 4
11.598604 10.320365 -0.54364794 5
6.4581084 3.9608703 -1.0571718 5
6.9886184 6.2173362 -0.97618008 5
4.9124651 3.005861 -1.2178031 5
5.0087814 4.4567742 -1.1760333 5
4.0309205 2.4577496 -1.3429149 5
3.8745003 3.449276 -1.2837067 8
19.460468 20.096016 7.4759412 24
19.504665 20.071518 5.4284072 22
47.360352 33.9212 5.0935993 16
20.902676 14.966855 0.44813415 6
27.924284 28.618582 2.0936997 255
10.292162 7.3677535 -0.66373128 5
13.690929 14.028016 -0.34154636 4
6.7689233 4.8427262 -1.0161636 5
7.3252053 7.5051484 -0.91265869 4
5.0154438 3.5861077 -1.189463 4
5.0429835 5.1702175 -1.1397073 20
4.0071969 2.8635054 -1.3094186 6
3.8848085 3.9909985 -1.2757908 6
70.496498 42.850616 17.513083 3
21.945236 19.467428 7.2946043 34
38.825615 23.63908 6.3835216 23
55.028439 33.528492 4.4922376 1
70.35495 62.263981 9.8708839 82
17.58185 10.720013 0 8
22.515633 19.903427 1.0482063 13
9.490262 5.7818356 -0.77271372 4
11.567163 10.22025 -0.54049128 5
6.4782429 3.9421611 -1.0582131 5
7.0140038 6.1961956 -0.97670096 5
4.9229274 2.9886951 -1.2178031 5
5.0224628 4.4376321 -1.1755991 5
4.0374169 2.4424217 -1.3422261 6
3.8919675 3.4405527 -1.2855198 9
19.496784 19.99338 7.4630175 26
41.631828 29.599155 8.0667143 16
19.445896 19.871737 5.3926625 13
47.498768 33.770107 5.0957785 9
20.922192 14.87063 0.44743603 6
10.307642 7.324553 -0.66307491 4
13.710035 13.949826 -0.34080461 4
6.779716 4.8147593 -1.0152509 5
7.3443789 7.4724255 -0.91178894 4
5.0319352 3.571419 -1.1904154 4
5.0558138 5.1472945 -1.1385328 22
4.0250483 2.8550863 -1.3120049 6
3.9021239 3.980896 -1.2769139 6
73.574722 44.721474 18.27809 13
21.945236 19.467428 7.2946043 34
38.825615 23.63908 6.3835216 23
55.028439 33.528492 4.4922376 1
70.365822 62.251698 9.8708839 82
17.58185 10.720013 0 8
22.515633 19.903427 1.0482063 13
9.491271 5.7801795 -0.77271372 4
11.567163 10.22025 -0.54049128 5
6.4789305 3.9410305 -1.0582131 5
7.0140076 6.1961908 -0.97670096 5
4.923449 2.9878356 -1.2178031 5
5.0232377 4.4367552 -1.1755991 5
4.0378432 2.4417169 -1.3422261 6
3.8925676 3.4398732 -1.2855198 9
19.500275 19.989975 7.4630175 26
43.671982 31.038074 8.4612312 1
22.169966 22.648474 6.1480646 1
20.924788 14.866979 0.44743603 6
10.30892 7.3227539 -0.66307491 4
13.7149 13.945045 -0.34080461 4
6.7805557 4.8135757 -1.0152509 5
7.3469872 7.4698615 -0.91178894 4
5.0325584 3.5705407 -1.1904154 4
5.0576096 5.1455297 -1.1385328 22
4.0260444 2.8536811 -1.3120049 6
3.9028184 3.9802148 -1.2769139 6
70.55883 42.535141 17.48971 2
22.031008 19.399693 7.2994361 31
39.058231 23.584902 6.4075289 34
54.933231 33.195026 4.474494 13
70.862526 62.229633 9.908514 71
17.627441 10.659379 0 9
22.6504 19.875153 1.0510855 3
9.5081224 5.7427759 -0.77236581 4
11.612057 10.184378 -0.54084206 5
6.4869695 3.913424 -1.0571718 5
7.0329332 6.1671624 -0.97618008 5
4.9280787 2.965992 -1.2162424 5
5.0357642 4.4150672 -1.1747308 5
4.0488281 2.4281354 -1.3429149 6
3.9015033 3.4223826 -1.2843111 9
19.578485 19.923536 7.4649558 25
41.686653 29.39781 8.055398 25
19.484152 19.758476 5.3821778 20
20.944403 14.765703 0.44669431 7
10.325486 7.2777309 -0.66241854 4
13.692045 13.820086 -0.33897209 5
6.794095 4.7858348 -1.0146425 5
7.3655553 7.4340334 -0.91070163 4
5.0335679 3.5435977 -1.1875583 5
5.0729628 5.123446 -1.1377498 21
4.03055 2.8347402 -1.3100652 5
3.9156699 3.964149 -1.2763523 5
73.8638 44.527252 18.309248 1
22.031008 19.399693 7.2994361 31
39.058231 23.584902 6.4075289 34
54.933231 33.195026 4.474494 13
70.862526 62.229633 9.908514 71
17.627441 10.659379 0 9
22.6504 19.875153 1.0510855 3
9.5081224 5.7427759 -0.77236581 4
11.612057 10.184378 -0.54084206 5
6.4869695 3.913424 -1.0571718 5
7.0329332 6.1671624 -0.97618008 5
4.9280787 2.965992 -1.2162424 5
5.0357642 4.4150672 -1.1747308 5
4.0488281 2.4281354 -1.3429149 6
3.9015033 3.4223826 -1.2843111 9
19.578485 19.923536 7.4649558 25
41.686653 29.39781 8.055398 25
19.484152 19.758476 5.3821778 20
20.944403 14.765703 0.44669431 7
10.325486 7.2777309 -0.66241854 4
13.692045 13.820086 -0.33897209 5
6.794095 4.7858348 -1.0146425 5
7.3655553 7.4340334 -0.91070163 4
5.0335679 3.5435977 -1.1875583 5
5.0729628 5.123446 -1.1377498 21
4.03055 2.8347402 -1.3100652 5
3.9156699 3.964149 -1.2763523 5
60.630535 36.262794 14.996301 4
22.175287 19.389746 7.3248019 32
39.00864 23.369549 6.3859572 37
55.063744 33.012054 4.4757118 16
69.220436 60.360863 9.6492834 31
17.606653 10.563069 0 8
9.5195522 5.7044272 -0.77166998 4
11.632464 10.130652 -0.54014057 4
6.5027156 3.8920269 -1.057519 5
7.0487933 6.1376762 -0.97539872 5
4.9510045 2.9562843 -1.2193636 4
5.0492883 4.3958449 -1.1742967 5
4.0510798 2.4103067 -1.3408488 6
3.9115973 3.4071488 -1.2837067 9
19.607151 19.813869 7.4494472 25
41.778896 29.245039 8.0534468 35
19.549545 19.686859 5.3812246 18
20.958954 14.666711 0.44590896 7
25.368151 25.441557 1.8810852 1
10.346735 7.2387815 -0.66215599 4
13.676664 13.708489 -0.33740139 7
6.8087263 4.7606688 -1.0143383 5
7.3879423 7.4047499 -0.91026676 4
5.0519428 3.5302215 -1.1889869 5
5.0908155 5.1057067 -1.1377498 22
4.0424008 2.8220353 -1.3107117 5
3.9243338 3.9452708 -1.2746677 5
70.713173 42.292355 17.491268 1
22.175287 19.389746 7.3248019 32
39.00864 23.369549 6.3859572 37
55.063744 33.012054 4.4757118 16
71.058708 61.963924 9.9056396 1
17.606653 10.563069 0 8
9.5185566 5.7060885 -0.77166998 4
11.632464 10.130652 -0.54014057 4
6.5027156 3.8920269 -1.057519 5
7.0487895 6.137681 -0.97539872 5
4.9510045 2.9562843 -1.2193636 4
5.0485206 4.3967266 -1.1742967 5
4.0510798 2.4103067 -1.3408488 6
3.9110024 3.4078314 -1.2837067 9
19.603693 19.817289 7.4494472 25
41.778896 29.245039 8.0534468 35
19.54611 19.690271 5.3812246 18
20.958954 14.666711 0.44590896 7
25.36371 25.445982 1.8810852 1
10.346735 7.2387815 -0.66215599 4
13.674271 13.710876 -0.33740139 7
6.8087263 4.7606688 -1.0143383 5
7.3866506 7.4060392 -0.91026676 4
5.0513268 3.5311034 -1.1889869 5
5.0899243 5.106596 -1.1377498 22
4.0419078 2.8227408 -1.3107117 5
3.9243338 3.9452708 -1.2746677 5
60.588516 35.965427 14.956309 4
22.338364 19.402014 7.3574157 28
38.892269 23.124945 6.3542953 39
55.093605 32.782085 4.469275 1
71.173592 61.649811 9.893096 18
17.594322 10.476496 0 7
9.5288506 5.6693945 -0.77097416 4
11.65088 10.078943 -0.53943908 5
6.5049405 3.8641257 -1.0557836 5
7.0709834 6.1158986 -0.97565913 5
4.9586759 2.9386048 -1.2188435 5
5.0574884 4.3751264 -1.1729943 5
4.0528388 2.393199 -1.3387828 7
3.9277828 3.3996084 -1.2855198 9
19.607964 19.690557 7.4261837 26
41.887817 29.114792 8.055788 40
20.980791 14.578588 0.44534177 6
25.35955 25.273605 1.8745432 1
10.358379 7.1958861 -0.66136831 4
13.710809 13.656632 -0.33718321 7
6.8122439 4.7295752 -1.0125128 5
7.4094052 7.3797445 -0.91004926 4
5.0609922 3.5129344 -1.1885107 5
5.0998397 5.0827122 -1.1361836 20
4.0512466 2.8093216 -1.3107117 5
3.9373951 3.9322355 -1.2746677 5
71.067528 42.184937 17.544243 1
22.338364 19.402014 7.3574157 28
38.892269 23.124945 6.3542953 39
55.093605 32.782085 4.469275 1
71.162827 61.662228 9.893096 18
17.594322 10.476496 0 7
9.5288506 5.6693945 -0.77097416 4
11.65088 10.078943 -0.53943908 5
6.5042663 3.8652608 -1.0557836 5
7.0709834 6.1158986 -0.97565913 5
4.9581633 2.9394703 -1.2188435 5
5.0574884 4.3751264 -1.1729943 5
4.0524206 2.3939064 -1.3387828 7
3.9277828 3.3996084 -1.2855198 9
19.607964 19.690557 7.4261837 26
43.766247 30.431665 8.4183064 1
20.978245 14.58225 0.44534177 6
25.35955 25.273605 1.8745432 1
10.357123 7.1976938 -0.66136831 4
13.708429 13.65902 -0.33718321 7
6.8114185 4.7307644 -1.0125128 5
7.4081163 7.3810377 -0.91004926 4
5.0609922 3.5129344 -1.1885107 5
5.0989523 5.083602 -1.1361836 20
4.0507565 2.8100288 -1.3107117 5
3.9367087 3.9329226 -1.2746677 5
61.221554 36.052746 15.081473 4
39.215855 23.132412 6.3939595 30
65.201569 56.099316 9.036747 16
17.529606 10.355274 0 6
9.5485821 5.6360979 -0.77097416 4
11.668937 10.023559 -0.53864992 5
6.5177183 3.8425331 -1.0557836 5
7.0809736 6.0814571 -0.97409642 5
4.9705024 2.923383 -1.2193636 4
5.0764642 4.3606558 -1.1738626 5
4.0649018 2.3821728 -1.3401601 5
3.9543383 3.3985322 -1.2903548 5
19.679998 19.625404 7.4274759 27
41.921127 28.932245 8.0436907 34
20.58474 20.456469 5.6290536 20
45.852337 31.64521 4.8711343 39
20.965233 14.464931 0.44398919 6
28.534819 28.241039 2.1022046 1
10.378076 7.1586628 -0.66110581 5
13.722273 13.577674 -0.3363542 6
6.8258467 4.7055511 -1.0122086 5
7.4285278 7.3498764 -0.90939695 5
5.0732236 3.4952464 -1.1885107 5
5.114913 5.0640345 -1.1357921 19
4.0625296 2.7972407 -1.3113583 5
3.9469576 3.9157231 -1.2735447 5
39.215855 23.132412 6.3939595 30
67.0737 57.689796 9.2949324 1
17.529606 10.355274 0 6
9.5485821 5.6360979 -0.77097416 4
11.668937 10.023559 -0.53864992 5
6.5183892 3.8413954 -1.0557836 5
7.0809736 6.0814571 -0.97409642 5
4.9710126 2.9225156 -1.2193636 4
5.0764642 4.3606558 -1.1738626 5
4.0653176 2.3814633 -1.3401601 5
3.9543383 3.3985322 -1.2903548 5
19.679998 19.625404 7.4274759 27
43.861225 30.259829 8.415185 1
20.58474 20.456469 5.6290536 20
20.967758 14.46127 0.44398919 6
28.534819 28.241039 2.1022046 1
10.379325 7.1568513 -0.66110581 5
13.724639 13.575284 -0.3363542 6
6.8266678 4.7043595 -1.0122086 5
7.4298105 7.3485794 -0.90939695 5
5.0732236 3.4952464 -1.1885107 5
5.115797 5.0631418 -1.1357921 19
4.0630178 2.7965314 -1.3113583 5
3.9476409 3.9150341 -1.2735447 5
61.862259 36.139778 15.208196 16
39.606205 23.176657 6.4444098 30
52.953751 31.010509 4.2779236 1
17.459946 10.232106 0 5
9.557435 5.5964365 -0.77010441 4
11.681045 9.9633045 -0.53759766 5
6.5253439 3.8148737 -1.0547423 5
7.1002674 6.055089 -0.973836 5
4.9727311 2.9002244 -1.2172829 5
5.0860372 4.3381143 -1.1725602 5
4.065289 2.3624356 -1.3374054 5
3.9717114 3.3894348 -1.292168 5
19.847893 19.655167 7.4649558 21
42.177666 28.881638 8.0725679 65
20.718891 20.446556 5.6462107 23
45.976234 31.482569 4.8720059 2
20.954166 14.344225 0.44263664 7
26.224377 25.773266 1.9251781 1
10.387759 7.1092987 -0.66005558 4
13.729153 13.485247 -0.33530706 6
6.8369017 4.6762996 -1.0112958 5
7.4465365 7.3138709 -0.90830964 4
5.0772891 3.4719772 -1.186606 5
5.1281595 5.0400577 -1.1346176 18
4.0727544 2.7823319 -1.3113583 5
3.9630167 3.902941 -1.2741061 6
61.862259 36.139778 15.208196 16
39.606205 23.176657 6.4444098 30
52.953751 31.010509 4.2779236 1
65.894516 56.276566 9.1041679 1
17.459946 10.232106 0 5
9.557435 5.5964365 -0.77010441 4
11.681045 9.9633045 -0.53759766 5
6.5253439 3.8148737 -1.0547423 5
7.1002674 6.055089 -0.973836 5
4.9727311 2.9002244 -1.2172829 5
5.0860372 4.3381143 -1.1725602 5
4.065289 2.3624356 -1.3374054 5
3.9717114 3.3894348 -1.292168 5
19.847893 19.655167 7.4649558 21
43.701717 29.925177 8.3644552 1
20.718891 20.446556 5.6462107 23
20.954166 14.344225 0.44263664 7
26.224377 25.773266 1.9251781 1
10.387759 7.1092987 -0.66005558 4
13.729153 13.485247 -0.33530706 6
6.8369017 4.6762996 -1.0112958 5
7.4465365 7.3138709 -0.90830964 4
5.0772891 3.4719772 -1.186606 5
5.1281595 5.0400577 -1.1346176 18
4.0727544 2.7823319 -1.3113583 5
3.9630167 3.902941 -1.2741061 6
61.820782 35.812298 15.165608 39
40.125587 23.283529 6.5150404 34
52.872944 30.703514 4.2622676 2
65.978973 55.931774 9.0874434 32
17.48436 10.160509 0 5
9.5778828 5.5613694 -0.77010441 5
11.709857 9.9139671 -0.53724694 5
6.5457106 3.7946532 -1.0557836 5
7.1167207 6.0242047 -0.97305465 5
4.9854455 2.8832016 -1.2178031 5
5.10566 4.3226266 -1.1734284 5
4.0780878 2.3499157 -1.3387828 6
3.9878087 3.3779922 -1.2933768 5
19.880198 19.543343 7.4500933 26
43.931618 29.846676 8.3874788 52
20.888346 20.463238 5.671947 14
21.002462 14.264519 0.44254938 7
10.405484 7.0655689 -0.65953046 4
13.77133 13.427854 -0.33513254 5
6.8601565 4.6553888 -1.0122086 4
7.469728 7.2830501 -0.90787476 4
5.0920115 3.4547222 -1.1870823 5
5.1483641 5.0229535 -1.1350092 17
4.0789266 2.7646778 -1.3100652 5
3.9790356 3.8900938 -1.2746677 5
61.820782 35.812298 15.165608 39
40.125587 23.283529 6.5150404 34
52.872944 30.703514 4.2622676 2
65.969208 55.943287 9.0874434 32
17.48436 10.160509 0 5
9.5778828 5.5613694 -0.77010441 5
11.709857 9.9139671 -0.53724694 5
6.5450478 3.7957957 -1.0557836 5
7.1167207 6.0242047 -0.97305465 5
4.984942 2.8840716 -1.2178031 5
5.10566 4.3226266 -1.1734284 5
4.0776777 2.3506274 -1.3387828 6
3.9878087 3.3779922 -1.2933768 5
19.880198 19.543343 7.4500933 26
43.926407 29.854342 8.3874788 52
20.888346 20.463238 5.671947 14
20.999975 14.268184 0.44254938 7
10.40425 7.0673852 -0.65953046 4
13.76899 13.430252 -0.33513254 5
6.859344 4.6565857 -1.0122086 4
7.4684572 7.2843533 -0.90787476 4
5.0920115 3.4547222 -1.1870823 5
5.1474872 5.0238519 -1.1350092 17
4.078444 2.7653894 -1.3100652 5
3.9783568 3.8907883 -1.2746677 5
26.451735 15.209132 6.4726887 37
40.322723 23.219513 6.5345244 30
52.952862 30.515564 4.2605281 1
63.868694 53.798832 8.7733345 4
17.524456 10.106219 0 5
9.5919495 5.5270886 -0.7697565 4
11.719726 9.8557816 -0.53619474 4
6.5597453 3.7753038 -1.0561306 5
7.1385617 6.002172 -0.97331506 5
4.983871 2.8614452 -1.215202 5
5.114315 4.3009167 -1.1721261 5
4.0750141 2.331135 -1.3353394 6
4.0045547 3.3694372 -1.29519 6
19.994993 19.526251 7.468833 26
44.162315 29.801052 8.4136238 53
20.820684 20.262043 5.6352491 21
20.968426 14.145351 0.44089139 6
21.653406 20.984627 1.5784523 9
10.42142 7.0286574 -0.65913665 4
13.791913 13.36364 -0.33460894 6
6.8726897 4.6324267 -1.0119042 4
7.4872074 7.2543454 -0.90722233 4
5.097332 3.4337053 -1.1856537 5
5.1676621 5.0101943 -1.1357921 16
4.0936027 2.7558932 -1.3120049 5
3.9894912 3.8758755 -1.2741061 5
61.987965 35.635124 15.177554 2
40.322723 23.219513 6.5345244 30
52.952862 30.515564 4.2605281 1
17.524456 10.106219 0 5
9.5919495 5.5270886 -0.7697565 4
11.719726 9.8557816 -0.53619474 4
6.5597453 3.7753038 -1.0561306 5
7.1385617 6.002172 -0.97331506 5
4.983871 2.8614452 -1.215202 5
5.114315 4.3009167 -1.1721261 5
4.0750141 2.331135 -1.3353394 6
4.0045547 3.3694372 -1.29519 6
19.994993 19.526251 7.468833 26
44.162315 29.801052 8.4136238 53
20.820684 20.262043 5.6352491 21
20.968426 14.145351 0.44089139 6
21.653406 20.984627 1.5784523 9
10.42142 7.0286574 -0.65913665 4
13.791913 13.36364 -0.33460894 6
6.8726897 4.6324267 -1.0119042 4
7.4872074 7.2543454 -0.90722233 4
5.097332 3.4337053 -1.1856537 5
5.1676621 5.0101943 -1.1357921 16
4.0936027 2.7558932 -1.3120049 5
3.9894912 3.8758755 -1.2741061 5
26.528032 15.13003 6.4784017 45
40.427181 23.092125 6.5383515 9
53.36652 30.506266 4.2852297 1
64.06945 53.586723 8.7751646 2
17.555285 10.042503 0 5
9.6046877 5.489862 -0.7692346 5
11.738717 9.8019991 -0.53549325 5
6.5685825 3.7499306 -1.0554365 5
7.1537437 5.9724355 -0.97253376 5
4.9980798 2.8464479 -1.2162424 5
5.1292968 4.2830381 -1.1721261 5
4.0894008 2.3204489 -1.3374054 5
4.0069871 3.3476579 -1.292168 5
20.0977 19.489967 7.4817572 25
44.22298 29.617861 8.4054289 41
20.878933 20.177301 5.6319132 31
43.974144 29.45121 4.6273165 13
21.013521 14.06929 0.44080412 6
21.650982 20.836195 1.572957 25
10.44589 6.9922371 -0.65913665 4
13.798862 13.277279 -0.33364907 6
6.8867559 4.6070299 -1.0116 5
7.5053091 7.2212563 -0.90635258 4
5.1072459 3.4145284 -1.1851776 5
5.1904526 4.9972663 -1.1369667 14
4.105206 2.7429283 -1.3126516 5
3.9994931 3.8585401 -1.2729832 5
26.528032 15.13003 6.4784017 45
67.241661 38.405453 10.878117 4
53.36652 30.506266 4.2852297 1
64.078796 53.575542 8.7751646 2
17.555285 10.042503 0 5
9.6046877 5.489862 -0.7692346 5
11.738717 9.8019991 -0.53549325 5
6.5692363 3.7487843 -1.0554365 5
7.1537437 5.9724355 -0.97253376 5
4.9985766 2.8455753 -1.2162424 5
5.1292968 4.2830381 -1.1721261 5
4.0898056 2.3197351 -1.3374054 5
4.0069871 3.3476579 -1.292168 5
20.0977 19.489967 7.4817572 25
44.228149 29.61014 8.4054289 41
20.878933 20.177301 5.6319132 31
21.015976 14.065623 0.44080412 6
21.650982 20.836195 1.572957 25
10.447111 6.9904137 -0.65913665 4
13.801174 13.274876 -0.33364907 6
6.8875594 4.6058278 -1.0116 5
7.5065689 7.2199454 -0.90635258 4
5.1072459 3.4145284 -1.1851776 5
5.1913247 4.9963608 -1.1369667 14
4.1056848 2.7422116 -1.3126516 5
4.0001664 3.8578422 -1.2729832 5
26.610487 15.054191 6.4856725 43
67.39901 38.183926 10.881943 1
52.648258 29.852409 4.2191267 1
62.025341 51.491787 8.4691572 20
17.538042 9.9515629 0 5
9.6259632 5.4575315 -0.76940858 4
11.751705 9.7434187 -0.53452873 4
6.5822821 3.7258303 -1.0554365 5
7.1688061 5.9426656 -0.97175229 5
5.0063491 2.8269091 -1.2157222 5
5.1328468 4.2556748 -1.1695213 5
4.0915914 2.3019154 -1.3353394 5
4.0205145 3.3351998 -1.2927724 5
20.229961 19.481688 7.5056667 19
21.035988 20.187574 5.6552663 26
44.042377 29.263651 4.6231761 4
21.012892 13.957605 0.43971336 6
21.718166 20.755316 1.5725646 26
10.461049 6.9470005 -0.65848029 4
13.861884 13.240434 -0.33399811 6
6.8994598 4.5790138 -1.0109916 4
7.5281248 7.1902571 -0.90591764 4
5.1273155 3.4021051 -1.1870823 5
5.2015982 4.9713807 -1.1354007 10
4.115232 2.7278636 -1.3126516 5
4.0188823 3.8489144 -1.2746677 5
26.610487 15.054191 6.4856725 43
52.648258 29.852409 4.2191267 1
62.025341 51.491787 8.4691572 20
17.538042 9.9515629 0 5
9.6259632 5.4575315 -0.76940858 4
11.751705 9.7434187 -0.53452873 4
6.5822821 3.7258303 -1.0554365 5
7.1688061 5.9426656 -0.97175229 5
5.0063491 2.8269091 -1.2157222 5
5.1328468 4.2556748 -1.1695213 5
4.0915914 2.3019154 -1.3353394 5
4.0205145 3.3351998 -1.2927724 5
20.229961 19.481688 7.5056667 19
21.035988 20.187574 5.6552663 26
21.012892 13.957605 0.43971336 6
21.718166 20.755316 1.5725646 26
10.461049 6.9470005 -0.65848029 4
13.861884 13.240434 -0.33399811 6
6.8994598 4.5790138 -1.0109916 4
7.5281248 7.1902571 -0.90591764 4
5.1273155 3.4021051 -1.1870823 5
5.2015982 4.9713807 -1.1354007 10
4.115232 2.7278636 -1.3126516 5
4.0188823 3.8489144 -1.2746677 5
26.714544 14.984067 6.4976182 43
68.809891 38.650688 11.086876 6
17.574398 9.8872156 0 5
9.6306791 5.4136653 -0.76819086 5
11.773836 9.689167 -0.53391492 5
6.5894146 3.6980488 -1.0543953 5
7.1867003 5.9131913 -0.97123146 5
5.0166764 2.8085408 -1.2157222 5
5.1522112 4.2399631 -1.1703895 5
4.1104999 2.2927475 -1.3387828 5
4.0270948 3.3158135 -1.2909591 5
20.536863 19.632742 7.5929046 13
43.160599 28.450333 8.1634903 18
21.084967 20.086637 5.6485939 28
21.00964 13.844739 0.43857893 6
21.78323 20.665266 1.5717795 26
