# .PCD v0.7 - Point Cloud Data file format
VERSION 0.7
FIELDS x y z intensity
SIZE 4 4 4 4
TYPE F F F F
COUNT 1 1 1 1
WIDTH 1511
HEIGHT 1
VIEWPOINT 0 0 0 1 0 0 0
POINTS 1511
DATA ascii
-22.44729 -18.213789 -1.0132897 4
-3.4514897 -1.9085113 -0.54802179 17
-13.44644 -10.909415 -1.8101525 5
-7.641089 -4.2072573 -1.8482931 12
-8.5229082 -6.9163246 -1.9292327 7
-5.5656528 -3.0532227 -1.8091472 7
-5.6882124 -4.6183639 -1.8167713 7
-23.927252 -15.534571 6.5676231 15
-3.5723274 -3.3623545 1.3033948 29
-29.589542 -19.217627 5.5700598 1
-18.218363 -17.113848 4.8474393 10
nan nan nan 0
-17.941912 -16.812889 3.0104573 10
-28.160526 -18.282619 0.58544093 1
-3.8528769 -3.5992467 0.27450207 24
-3.3352582 -2.1662297 -0.20728476 29
-3.8502452 -3.5967758 -0.091364078 21
-3.3492749 -2.173671 -0.48526379 38
-3.9229913 -3.6661255 -0.46578866 18
-3.268328 -2.1195707 -0.74900937 42
-8.4622068 -7.9236164 -1.8326932 8
-3.3144624 -2.1478341 -1.0481814 22
-6.1008673 -5.724761 -1.9204246 8
-27.414455 -15.007551 6.6300526 9
-22.115528 -17.893356 7.0735555 3
-28.78639 -15.784437 4.6090651 16
-21.317827 -17.223261 4.8213396 8
-35.336132 -19.390797 2.8090401 28
-20.512817 -16.555042 2.7668684 29
-61.384686 -33.695454 0 1
-22.512318 -18.149563 1.0085955 8
nan nan nan 0
-22.482279 -18.11887 -1.0121498 4
-3.4751747 -1.9065635 -0.55079836 1
-13.503838 -10.88193 -1.8130175 5
-7.6614375 -4.1854095 -1.8498536 12
-8.5572958 -6.897296 -1.9318374 6
-5.5694127 -3.0313075 -1.8070813 7
-5.6959443 -4.5933824 -1.8143537 8
-23.575235 -15.195164 6.4570022 22
-3.6134205 -3.3785577 1.3143803 34
-27.243536 -17.565941 5.1170096 3
-4.2640615 -3.9741907 1.1252388 5
-61.333672 -39.543949 6.3815436 1
-18.004829 -16.760063 3.0116744 26
-28.315546 -18.250065 0.58740431 36
-3.8830764 -3.6034484 0.27581048 35
-3.3298309 -2.1470456 -0.2064971 29
-3.8859515 -3.606113 -0.091931291 29
-3.3460319 -2.1558371 -0.48374256 38
-14.23791 -13.233738 -1.6941921 10
-3.2732747 -2.1073933 -0.74853319 49
-8.5444613 -7.9476647 -1.8448303 8
-3.3215668 -2.136831 -1.0481814 23
-6.1251607 -5.7094846 -1.9221091 9
-30.692371 -16.801413 7.4236236 1
-22.115528 -17.893356 7.0735555 3
-28.78639 -15.784437 4.6090651 16
-21.317827 -17.223261 4.8213396 8
-35.336132 -19.390797 2.8090401 28
-20.512817 -16.555042 2.7668684 29
-69.344604 -38.06422 0 1
-48.259834 -38.910355 2.1635942 3
nan nan nan 0
-22.482279 -18.11887 -1.0121498 4
-3.4751747 -1.9065635 -0.55079836 1
-13.503838 -10.88193 -1.8130175 5
-7.6614375 -4.1854095 -1.8498536 12
-8.5572958 -6.897296 -1.9318374 6
-5.5694127 -3.0313075 -1.8070813 7
-5.6959443 -4.5933824 -1.8143537 8
-23.575235 -15.195164 6.4570022 22
-3.6134205 -3.3785577 1.3143803 34
-29.804613 -19.217073 5.5985465 6
-4.2640615 -3.9741907 1.1252388 5
-61.333672 -39.543949 6.3815436 1
-18.004829 -16.760063 3.0116744 26
-28.225203 -18.191841 0.58552819 1
-3.8830764 -3.6034484 0.27581048 35
-3.3298309 -2.1470456 -0.2064971 29
-3.8859515 -3.606113 -0.091931291 29
-3.3460319 -2.1558371 -0.48374256 38
-14.23791 -13.233738 -1.6941921 10
-3.2732747 -2.1073933 -0.74853319 49
-8.5444613 -7.9476647 -1.8448303 8
-3.3215668 -2.136831 -1.0481814 23
-6.1251607 -5.7094846 -1.9221091 9
-27.372105 -14.860438 6.6072011 4
-21.68804 -17.422512 6.9171305 17
-29.004438 -15.772539 4.63516 13
-22.190153 -17.80048 5.0047908 12
nan nan nan 0
-20.797474 -16.66526 2.7974429 8
nan nan nan 0
-22.673056 -18.148945 1.0129578 21
nan nan nan 0
-22.564896 -18.055893 -1.0130266 1
-12.644835 -6.8674684 -2.0123055 1
-13.565035 -10.853369 -1.8161428 5
-7.6673989 -4.1539855 -1.847773 12
-8.5986185 -6.8812323 -1.9357445 7
-5.5799599 -3.011848 -1.8070813 7
-5.7214098 -4.5810561 -1.8173757 7
-23.656864 -15.131154 6.4648633 25
-3.6623251 -3.4004664 1.3279505 36
-27.238125 -17.42815 5.1045227 28
-4.2509112 -3.9342568 1.1180898 24
-30.410082 -19.457474 3.1554735 34
-17.901077 -16.547173 2.984597 25
-28.299059 -18.099941 0.58574635 6
-3.8956311 -3.5898721 0.27581048 8
-3.3309948 -2.1313753 -0.20610327 28
-3.9168828 -3.6094811 -0.092367604 15
-3.3493543 -2.1414726 -0.48313412 38
-14.276698 -13.177198 -1.6933222 1
-3.272336 -2.0906727 -0.74662852 43
-8.5794048 -7.9244952 -1.8463963 8
-3.3330777 -2.1278207 -1.0494747 24
-6.1611347 -5.7029715 -1.9271629 8
-30.87549 -16.761829 7.4537458 3
-21.68804 -17.422512 6.9171305 17
-29.004438 -15.772539 4.63516 13
-22.190153 -17.80048 5.0047908 12
nan nan nan 0
-26.802002 -21.469837 3.6057093 1
nan nan nan 0
-48.559196 -38.872826 2.170923 1
nan nan nan 0
-22.564896 -18.055893 -1.0130266 1
-12.646033 -6.865262 -2.0123055 1
-13.565035 -10.853369 -1.8161428 5
-7.6681237 -4.152647 -1.847773 12
-8.5986185 -6.8812323 -1.9357445 7
-5.5804858 -3.0108738 -1.8070813 7
-5.7214098 -4.5810561 -1.8173757 7
-23.659504 -15.127025 6.4648633 25
-3.6623251 -3.4004664 1.3279505 36
-29.720903 -19.009254 5.5696697 1
-4.2509112 -3.9342568 1.1180898 24
-30.413479 -19.452169 3.1554735 34
-17.901077 -16.547173 2.984597 25
-28.302219 -18.095001 0.58574635 6
-3.8956311 -3.5898721 0.27581048 8
-3.3313668 -2.1307938 -0.20610327 28
-3.9175091 -3.6088023 -0.092367604 15
-3.3497281 -2.1408877 -0.48313412 38
-14.278996 -13.174707 -1.6933222 1
-3.272336 -2.0906727 -0.74662852 43
-8.5807877 -7.922998 -1.8463963 8
-3.3334489 -2.127239 -1.0494747 24
-6.1621304 -5.7018957 -1.9271629 8
-30.755081 -16.557758 7.4106398 23
-21.695623 -17.30434 6.9002194 23
-29.039705 -15.660624 4.6320281 9
-22.196308 -17.678429 4.9922142 21
nan nan nan 0
-21.414913 -17.03158 2.8721807 18
nan nan nan 0
-22.695196 -18.037043 1.0111257 29
nan nan nan 0
-22.700161 -18.034523 -1.0162709 2
-12.6612 -6.8163848 -2.0109172 6
-13.639825 -10.835341 -1.8210915 5
-7.6847277 -4.1270108 -1.8482931 12
-8.6322212 -6.8588343 -1.9379151 8
-5.6036801 -2.9981704 -1.8112134 6
-5.7316704 -4.5565257 -1.8155625 7
-23.782104 -15.088714 6.4839554 21
-3.7007823 -3.4122424 1.3376435 30
-29.734949 -18.872314 5.5599141 13
-4.2772574 -3.9310291 1.121426 19
-30.424423 -19.30986 3.1495907 3
-18.044634 -16.563469 2.9988964 23
nan nan nan 0
nan nan nan 0
-3.3366759 -2.117815 -0.20597199 30
-3.9816837 -3.6423895 -0.093589284 3
-3.3446045 -2.1212132 -0.48130867 39
-14.258804 -13.064198 -1.6854938 3
-3.2858341 -2.0831771 -0.74805701 47
-8.6083927 -7.8929968 -1.8463963 8
-3.3306503 -2.1091344 -1.0462415 25
-6.1819959 -5.6803513 -1.9271629 9
-30.755081 -16.557758 7.4106398 23
-21.695623 -17.30434 6.9002194 23
-29.039705 -15.660624 4.6320281 9
-23.87174 -19.013039 5.369525 1
nan nan nan 0
-21.414913 -17.03158 2.8721807 18
nan nan nan 0
-22.695196 -18.037043 1.0111257 29
nan nan nan 0
-22.700161 -18.034523 -1.0162709 2
-12.6612 -6.8163848 -2.0109172 6
-13.639825 -10.835341 -1.8210915 5
-7.6847277 -4.1270108 -1.8482931 12
-8.6322212 -6.8588343 -1.9379151 8
-5.6036801 -2.9981704 -1.8112134 6
-5.7316704 -4.5565257 -1.8155625 7
-23.782104 -15.088714 6.4839554 21
-3.7007823 -3.4122424 1.3376435 30
-29.734949 -18.872314 5.5599141 13
-4.2772574 -3.9310291 1.121426 19
-33.616451 -21.335585 3.4803467 23
-18.044634 -16.563469 2.9988964 23
nan nan nan 0
nan nan nan 0
-3.3366759 -2.117815 -0.20597199 30
-19.417921 -17.787096 -0.45904562 10
-3.3446045 -2.1212132 -0.48130867 39
-14.258804 -13.064198 -1.6854938 3
-3.2858341 -2.0831771 -0.74805701 47
-8.6138506 -7.898005 -1.8475709 8
-3.3306503 -2.1091344 -1.0462415 25
-6.1819959 -5.6803513 -1.9271629 9
-30.832827 -16.454132 7.4147944 1
-22.491167 -17.804468 7.1327434 22
nan nan nan 0
-23.873667 -18.871973 5.3543458 35
-35.003971 -18.726501 2.7665946 22
-21.594282 -17.045414 2.8878601 5
nan nan nan 0
-22.651306 -17.867081 1.0062397 21
nan nan nan 0
nan nan nan 0
-12.738527 -6.7978935 -2.0192468 6
-13.704826 -10.805291 -1.8244773 5
-7.701961 -4.0999656 -1.8488134 12
-8.6708336 -6.8378248 -1.940954 7
-5.610383 -2.9753621 -1.809836 5
-5.7559485 -4.5415006 -1.8179801 7
-23.859928 -15.015718 6.4901319 21
-4.1493602 -3.7985444 1.4959637 16
-27.538599 -17.337204 5.1369114 35
-4.2463441 -3.8739383 1.1095111 27
-33.633301 -21.173752 3.4740281 35
-18.031866 -16.430353 2.9867268 25
nan nan nan 0
nan nan nan 0
-3.3380759 -2.1015837 -0.20557816 32
-19.569891 -17.794857 -0.46109632 10
-3.3544574 -2.1102607 -0.48161289 49
-14.315804 -13.020232 -1.6865811 4
-3.2955248 -2.0724254 -0.74853319 50
-8.6555166 -7.8780198 -1.8503115 8
-3.3281305 -2.0904946 -1.0430083 22
-6.2153668 -5.6691532 -1.9310936 9
-30.832827 -16.454132 7.4147944 1
-22.491167 -17.804468 7.1327434 22
nan nan nan 0
-23.873667 -18.871973 5.3543458 35
-35.003971 -18.726501 2.7665946 22
-27.130577 -21.416147 3.6292281 13
nan nan nan 0
-49.442238 -39.002518 2.1978829 1
nan nan nan 0
nan nan nan 0
-12.738527 -6.7978935 -2.0192468 6
-13.70483 -10.805286 -1.8244773 5
-7.701961 -4.0999656 -1.8488134 12
-8.6720266 -6.8363109 -1.940954 7
-5.610383 -2.9753621 -1.809836 5
-5.756741 -4.5404963 -1.8179801 7
-23.859928 -15.015718 6.4901319 21
-4.1500235 -3.7978199 1.4959637 16
-27.538599 -17.337204 5.1369114 35
-4.2470198 -3.8731973 1.1095111 27
-33.633301 -21.173752 3.4740281 35
-18.034731 -16.427206 2.9867268 25
nan nan nan 0
nan nan nan 0
-3.3380759 -2.1015837 -0.20557816 32
-19.572996 -17.791443 -0.46109632 10
-3.3544574 -2.1102607 -0.48161289 49
-14.318076 -13.017734 -1.6865811 4
-3.2958868 -2.0718503 -0.74853319 50
-8.6568918 -7.8765087 -1.8503115 8
-3.3284953 -2.0899138 -1.0430083 22
-6.2153668 -5.6691532 -1.9310936 9
nan nan nan 0
-20.628778 -16.213129 6.5233498 12
-30.260092 -16.040136 4.8084302 4
-23.947145 -18.794603 5.3560805 36
-34.809143 -18.466318 2.746068 37
-24.518444 -19.215412 3.2704341 4
nan nan nan 0
-22.892529 -17.928101 1.0141793 6
nan nan nan 0
nan nan nan 0
-12.773122 -6.7591729 -2.0209823 7
-13.763998 -10.774241 -1.8273423 5
-7.7183886 -4.0741959 -1.8493335 10
-8.707468 -6.8151054 -1.9435588 8
-5.6228628 -2.9568775 -1.8105247 9
-5.7725554 -4.5203733 -1.8179801 8
-23.839872 -14.887183 6.4704785 22
-4.1489673 -3.7703059 1.4907941 12
-27.578003 -17.227886 5.133009 51
-4.3132296 -3.9061651 1.1233324 10
-33.709122 -21.057541 3.4742458 1
-18.125084 -16.394121 2.992203 19
nan nan nan 0
-19.609854 -17.706537 1.3828467 6
-3.3496273 -2.0925624 -0.20584071 37
nan nan nan 0
-3.3533814 -2.093286 -0.48039594 46
-14.424419 -13.022765 -1.6937572 5
-3.3030987 -2.0603328 -0.74853319 42
-8.689827 -7.8512101 -1.851486 7
-3.3337197 -2.0770061 -1.0423617 22
-6.2315083 -5.6441507 -1.9299705 9
nan nan nan 0
-22.65617 -17.80681 7.1653571 1
-34.331043 -18.197416 5.4559331 23
-23.947145 -18.794603 5.3560805 36
-34.809143 -18.466318 2.746068 37
-27.242348 -21.350458 3.6341932 18
nan nan nan 0
-49.849522 -39.042301 2.2099233 1
nan nan nan 0
nan nan nan 0
-12.773122 -6.7591729 -2.0209823 7
-13.763994 -10.774246 -1.8273423 5
-7.7183886 -4.0741959 -1.8493335 10
-8.7062788 -6.8166251 -1.9435588 8
-5.6228628 -2.9568775 -1.8105247 9
-5.7717662 -4.5213809 -1.8179801 8
-23.839872 -14.887183 6.4704785 22
-4.1483097 -3.7710297 1.4907941 12
-27.578003 -17.227886 5.133009 51
-4.3125482 -3.9069178 1.1233324 10
-33.709122 -21.057541 3.4742458 1
-18.122223 -16.397285 2.992203 19
-3.7964771 -2.3723814 0.077532314 1
-19.606762 -17.709959 1.3828467 6
-3.3496273 -2.0925624 -0.20584071 37
-19.617046 -17.713034 -0.46074724 10
-3.3533814 -2.093286 -0.48039594 46
-14.422146 -13.025282 -1.6937572 5
-3.3027389 -2.0609093 -0.74853319 42
-8.6884565 -7.8527265 -1.851486 7
-3.3333573 -2.0775881 -1.0423617 22
-6.2315083 -5.6441507 -1.9299705 9
nan nan nan 0
-20.651836 -16.120747 6.5136867 7
-30.337221 -15.952374 4.8122573 13
-23.7705 -18.528893 5.3027363 26
-34.78632 -18.306656 2.7394576 51
-24.585957 -19.137056 3.270957 4
nan nan nan 0
-23.19047 -18.03771 1.0247364 2
nan nan nan 0
nan nan nan 0
-12.828352 -6.7340298 -2.0261881 7
-13.81535 -10.740756 -1.8294261 5
-7.7361903 -4.0508447 -1.850374 10
-8.7424383 -6.7982979 -1.9465976 8
-5.6283746 -2.9359949 -1.8091472 7
-5.7867284 -4.5022163 -1.8179801 8
-23.934666 -14.836278 6.4828324 20
-4.1643739 -3.7604928 1.4920865 10
-27.641279 -17.140245 5.1341796 6
-4.2944903 -3.8646626 1.1152303 20
-4.3573799 -2.7036078 0.44558373 6
-18.003048 -16.181143 2.9636042 5
-4.2993646 -2.6665974 0.08769834 17
-19.44243 -17.444729 1.367146 4
-3.3544259 -2.0801284 -0.20570944 37
-19.699863 -17.669584 -0.46131444 4
-3.3581946 -2.0808485 -0.48009169 41
-14.467114 -12.979049 -1.6939747 4
-3.3074682 -2.0486543 -0.74805701 50
-8.7144499 -7.8238721 -1.851486 7
-3.3361206 -2.0639834 -1.0410686 23
-6.2628617 -5.6348677 -1.9339012 9
nan nan nan 0
-22.862333 -17.846535 7.2118616 8
-34.316696 -18.044304 5.4441032 18
-23.7705 -18.528893 5.3027363 26
-34.78632 -18.306656 2.7394576 51
-28.085993 -21.861759 3.7371538 1
-35.630806 -18.75889 0 1
-50.223251 -39.067009 2.2207422 3
nan nan nan 0
nan nan nan 0
-12.828352 -6.7340298 -2.0261881 7
-13.81535 -10.740756 -1.8294261 5
-7.7361903 -4.0508447 -1.850374 10
-8.7424383 -6.7982979 -1.9465976 8
-5.6283746 -2.9359949 -1.8091472 7
-5.7867284 -4.5022163 -1.8179801 8
-23.934666 -14.836278 6.4828324 20
-4.1643739 -3.7604928 1.4920865 10
-27.641279 -17.140245 5.1341796 6
-4.2944903 -3.8646626 1.1152303 20
-4.3573799 -2.7036078 0.44558373 6
-18.003048 -16.181143 2.9636042 5
-4.2993646 -2.6665974 0.08769834 17
-19.44243 -17.444729 1.367146 4
-3.3544259 -2.0801284 -0.20570944 37
-19.699863 -17.669584 -0.46131444 4
-3.3581946 -2.0808485 -0.48009169 41
-14.467114 -12.979049 -1.6939747 4
-3.3074682 -2.0486543 -0.74805701 50
-8.7144499 -7.8238721 -1.851486 7
-3.3361206 -2.0639834 -1.0410686 23
-6.2628617 -5.6348677 -1.9339012 9
nan nan nan 0
-21.651339 -16.779776 6.8108339 1
-30.419064 -15.860111 4.8164325 26
-24.232229 -18.753233 5.3912096 1
-34.79694 -18.157434 2.7352827 70
-27.798199 -21.482307 3.6888096 26
-35.826828 -18.702646 0 4
-23.197926 -17.913891 1.0222934 4
nan nan nan 0
nan nan nan 0
-12.869351 -6.698349 -2.0289648 7
-13.876376 -10.7107 -1.8325515 5
-7.7567949 -4.0271931 -1.8519346 10
-8.7739096 -6.7737598 -1.948334 8
-5.6428595 -2.9185357 -1.8105247 7
-5.8024082 -4.4819894 -1.8179801 8
-24.10874 -14.827932 6.5159626 9
-4.1792717 -3.7475474 1.4927328 18
-4.3846679 -2.6993864 0.80815428 3
-4.3792715 -3.9134808 1.1338174 3
-4.3095183 -2.653147 0.43970072 8
-17.97798 -16.045486 2.950218 22
-4.2894826 -2.6397889 0.087305658 8
-19.702627 -17.554495 1.3811458 1
-3.3701739 -2.0736365 -0.20623454 37
-19.767017 -17.6057 -0.46144533 10
-3.3569798 -2.0639184 -0.47887474 41
-14.577404 -12.986467 -1.7015857 5
-3.3166904 -2.0383806 -0.74853319 42
-8.7509193 -7.8016238 -1.8534437 8
-3.1497939 -1.9336493 -0.98028564 23
-6.278861 -5.609724 -1.932778 12
nan nan nan 0
-21.651339 -16.779776 6.8108339 1
-32.910786 -17.158876 5.2113361 1
-24.232229 -18.753233 5.3912096 1
-34.79694 -18.157434 2.7352827 70
-27.798199 -21.482307 3.6888096 26
-35.826828 -18.702646 0 4
-50.559029 -39.045708 2.2295542 3
nan nan nan 0
nan nan nan 0
-12.869351 -6.698349 -2.0289648 7
-13.876376 -10.7107 -1.8325515 5
-7.7567949 -4.0271931 -1.8519346 10
-8.7739096 -6.7737598 -1.948334 8
-5.6428595 -2.9185357 -1.8105247 7
-5.8024082 -4.4819894 -1.8179801 8
-24.10874 -14.827932 6.5159626 9
-4.1792717 -3.7475474 1.4927328 18
-4.3846679 -2.6993864 0.80815428 3
-4.3792715 -3.9134808 1.1338174 3
-4.3095183 -2.653147 0.43970072 8
-17.97798 -16.045486 2.950218 22
-4.2894826 -2.6397889 0.087305658 8
-44.935902 -40.044426 3.1525872 1
-3.3701739 -2.0736365 -0.20623454 37
-19.767017 -17.6057 -0.46144533 10
-3.3569798 -2.0639184 -0.47887474 41
-14.577404 -12.986467 -1.7015857 5
-3.3166904 -2.0383806 -0.74853319 42
-8.7509193 -7.8016238 -1.8534437 8
-3.1497939 -1.9336493 -0.98028564 23
-6.278861 -5.609724 -1.932778 12
nan nan nan 0
-21.879982 -16.828995 6.863378 22
-30.485792 -15.75306 4.8178244 3
-20.069675 -15.414115 4.4514017 3
-34.708187 -17.9496 2.7231057 66
-23.437984 -17.975525 3.1008368 20
-35.841846 -18.543642 0 1
-23.303089 -17.859144 1.0240384 4
nan nan nan 0
nan nan nan 0
-12.920223 -6.6647477 -2.0331297 7
-13.953038 -10.6885 -1.8375 5
-7.7758532 -4.0009713 -1.852975 10
-8.8143101 -6.7535381 -1.951807 8
-5.6492391 -2.8956442 -1.8091472 7
-5.8053226 -4.450357 -1.8137494 7
nan nan nan 0
-4.1659403 -3.7080963 1.4830396 19
-4.3418341 -2.6511428 0.79839867 8
-19.388103 -17.219522 5.0290213 10
-4.3149619 -2.6347394 0.43926495 8
-19.258595 -17.062458 3.1504078 19
-4.2905936 -2.6188433 0.087131135 8
-19.69017 -17.414339 1.3757813 6
-3.3884089 -2.0677681 -0.20689093 37
-19.820179 -17.523195 -0.46118355 7
-3.3602836 -2.0490186 -0.47826624 41
-14.621173 -12.92965 -1.7011507 5
-3.3304279 -2.0300403 -0.74996167 42
-8.803484 -7.7907801 -1.8585333 8
-3.1919351 -1.9434261 -0.99127829 23
-6.3121314 -5.5979943 -1.9367087 16
nan nan nan 0
-21.879982 -16.828995 6.863378 22
-32.995449 -17.049501 5.2148151 20
-22.885218 -17.5769 5.0767837 6
-34.708187 -17.9496 2.7231057 66
-27.699194 -21.244083 3.6652904 1
nan nan nan 0
-50.985367 -39.077488 2.2420309 1
nan nan nan 0
nan nan nan 0
-12.920223 -6.6647477 -2.0331297 7
-13.953042 -10.688496 -1.8375 5
-7.7758532 -4.0009713 -1.852975 10
-8.8154879 -6.7519999 -1.951807 8
-5.6492391 -2.8956442 -1.8091472 7
-5.8060999 -4.4493437 -1.8137494 7
nan nan nan 0
-4.1665869 -3.7073691 1.4830396 19
-4.3418341 -2.6511428 0.79839867 8
-19.391106 -17.216139 5.0290213 10
-4.3149619 -2.6347394 0.43926495 8
-19.261572 -17.059099 3.1504078 19
-4.2905936 -2.6188433 0.087131135 8
-45.152912 -39.927826 3.1570356 1
-3.3884089 -2.0677681 -0.20689093 37
-19.823238 -17.519735 -0.46118355 7
-3.3602836 -2.0490186 -0.47826624 41
-14.623428 -12.927098 -1.7011507 5
-3.3307822 -2.0294588 -0.74996167 42
-8.8048439 -7.7892437 -1.8585333 8
-3.1922741 -1.9428689 -0.99127829 23
-6.3121314 -5.5979943 -1.9367087 16
nan nan nan 0
-21.936665 -16.751043 6.8627739 17
-30.505335 -15.628491 4.8122573 25
-20.074413 -15.306639 4.4405594 8
-34.786167 -17.836298 2.7243235 51
-23.516415 -17.905653 3.1029274 18
nan nan nan 0
nan nan nan 0
nan nan nan 0
nan nan nan 0
-12.969865 -6.6331272 -2.0372944 7
-13.984329 -10.63521 -1.8367187 5
-7.7941298 -3.9760246 -1.8540155 10
-8.8507605 -6.7301302 -1.9544117 8
-5.6593122 -2.8759069 -1.8091472 7
-3.3277662 -2.5306363 -1.0328883 2
-4.3371058 -2.626502 1.1606768 7
-4.1704607 -3.6847997 1.4798086 15
-4.3299375 -2.6231828 0.79449642 6
-19.460289 -17.156464 5.0314045 18
-4.3049579 -2.6080534 0.43730393 8
-19.35454 -17.021263 3.1558843 22
-4.3061242 -2.6077325 0.087262027 34
-19.645067 -17.246504 1.3681927 25
-3.4062872 -2.0623887 -0.20754731 37
nan nan nan 0
-3.3610449 -2.0334258 -0.47735351 48
-14.702147 -12.905555 -1.7050648 5
-3.34835 -2.0241637 -0.75234252 52
-8.8505239 -7.7747645 -1.8624486 7
-3.1638834 -1.9105084 -0.98028564 23
-6.3298068 -5.5743165 -1.9361473 10
nan nan nan 0
-21.936665 -16.751043 6.8627739 17
-30.505335 -15.628491 4.8122573 25
-24.440195 -18.636087 5.4076896 2
-34.786167 -17.836298 2.7243235 51
-28.166817 -21.447029 3.7172935 1
nan nan nan 0
-51.407768 -39.117149 2.2545948 6
nan nan nan 0
nan nan nan 0
-12.969865 -6.6331272 -2.0372944 7
-13.984326 -10.635215 -1.8367187 5
-7.7941298 -3.9760246 -1.8540155 10
-8.8495855 -6.7316751 -1.9544117 8
-5.6593122 -2.8759069 -1.8091472 7
-5.89223 -4.4844446 -1.8361114 1
-4.3371058 -2.626502 1.1606768 7
-4.1698174 -3.6855276 1.4798086 15
-4.3299375 -2.6231828 0.79449642 6
-19.457293 -17.159861 5.0314045 18
-4.3049579 -2.6080534 0.43730393 8
-19.351566 -17.024639 3.1558843 22
-4.3061242 -2.6077325 0.087262027 34
-19.642056 -17.249933 1.3681927 25
-3.4062872 -2.0623887 -0.20754731 37
nan nan nan 0
-3.3610449 -2.0334258 -0.47735351 48
-14.699895 -12.90812 -1.7050648 5
-3.3479967 -2.0247483 -0.75234252 52
-8.8491678 -7.7763085 -1.8624486 7
-3.1635504 -1.9110606 -0.98028564 23
-6.3298068 -5.5743165 -1.9361473 10
nan nan nan 0
-22.019152 -16.698732 6.8712296 21
-30.55258 -15.525003 4.8115616 43
-20.121136 -15.237013 4.439692 9
-34.916264 -17.757015 2.7298901 30
-28.051374 -21.212526 3.6927292 41
nan nan nan 0
-24.237366 -18.314726 1.0596359 3
nan nan nan 0
nan nan nan 0
-13.011662 -6.6001554 -2.0404179 8
-14.037372 -10.602272 -1.8390628 5
-7.80509 -3.9490538 -1.8534952 12
-8.8797169 -6.7082291 -1.9561481 8
-5.6688185 -2.8571243 -1.8091472 7
-3.3163521 -2.5055366 -1.0268445 18
-4.3478799 -2.6133599 1.1612384 8
-4.1965241 -3.6844385 1.4849782 3
-4.3280292 -2.6024506 0.79254532 6
-19.687586 -17.247286 5.0762043 16
-4.3114476 -2.5924807 0.43708605 8
-19.293957 -16.86075 3.1373255 20
-4.3018909 -2.5857165 0.087000236 8
-19.84211 -17.309458 1.3781365 16
-3.4280908 -2.060077 -0.20846625 31
-20.863857 -18.194683 -0.48260656 1
-3.3698971 -2.0235455 -0.47765777 51
-14.770767 -12.883868 -1.7083267 5
-3.3567975 -2.0148971 -0.75281864 52
-8.8916407 -7.7615418 -1.8659723 8
-3.1677983 -1.8993185 -0.97963899 23
-6.3592534 -5.5629249 -1.9395165 17
nan nan nan 0
-22.019152 -16.698732 6.8712296 21
-30.55258 -15.525003 4.8115616 43
-20.121136 -15.237013 4.439692 9
-34.916264 -17.757015 2.7298901 30
-28.047672 -21.217424 3.6927292 41
nan nan nan 0
-51.742508 -39.10162 2.2635813 1
nan nan nan 0
nan nan nan 0
-13.010511 -6.6024261 -2.0404179 8
-14.037372 -10.602272 -1.8390628 5
-7.8044004 -3.9504158 -1.8534952 12
-8.8797169 -6.7082291 -1.9561481 8
-5.6683197 -2.8581135 -1.8091472 7
-3.3163521 -2.5055366 -1.0268445 18
-4.347424 -2.6141186 1.1612384 8
-4.1965241 -3.6844385 1.4849782 3
-4.3275747 -2.6032062 0.79254532 6
-19.687586 -17.247286 5.0762043 16
-4.3109951 -2.5932331 0.43708605 8
-19.293957 -16.86075 3.1373255 20
-4.3014398 -2.586467 0.087000236 8
-19.84211 -17.309458 1.3781365 16
-3.4277308 -2.0606756 -0.20846625 31
-43.707413 -38.135822 -1.0118986 1
-3.3695443 -2.0241334 -0.47765777 51
-14.768518 -12.886446 -1.7083267 5
-3.3567975 -2.0148971 -0.75281864 52
-8.8902874 -7.7630935 -1.8659723 8
-3.1674669 -1.8998713 -0.97963899 23
-6.3582821 -5.5640354 -1.9395165 17
nan nan nan 0
-22.069555 -16.615934 6.8688135 28
-30.531406 -15.3804 4.7997317 48
-20.172234 -15.165204 4.4392586 10
-36.358791 -18.330986 2.8377426 1
-28.222952 -21.195539 3.7060566 39
nan nan nan 0
-24.417061 -18.316978 1.0646963 16
nan nan nan 0
nan nan nan 0
-13.073295 -6.5769868 -2.0466652 8
-14.126012 -10.591994 -1.8458345 5
-7.8225136 -3.9253402 -1.8545356 10
-8.9208031 -6.6904902 -1.9600552 8
-5.6804123 -2.8393831 -1.809836 7
-3.3367169 -2.5026841 -1.0304707 20
-4.3376894 -2.5877006 1.1561847 6
-4.0074449 -3.4934394 1.4132495 3
-4.3239102 -2.5804954 0.79020399 7
-19.682875 -17.122072 5.0595236 15
-4.3157434 -2.575618 0.43665025 7
-19.202784 -16.663166 3.1129863 10
-4.3233247 -2.5791161 0.087262027 6
-19.913731 -17.249901 1.3789216 12
nan nan nan 0
-20.952415 -18.149946 -0.48326102 2
-3.3701928 -2.0085511 -0.47674507 57
-14.847283 -12.864179 -1.7122408 5
-3.3701375 -2.0069315 -0.75424713 48
-8.9303856 -7.7433414 -1.8687129 8
-3.1823826 -1.8937391 -0.98222554 29
-6.3886929 -5.5513992 -1.9428855 16
nan nan nan 0
-22.069555 -16.615934 6.8688135 28
-30.531406 -15.3804 4.7997317 48
-25.924309 -19.490267 5.7069364 1
-36.358791 -18.330986 2.8377426 1
-28.22665 -21.190617 3.7060566 39
nan nan nan 0
-52.128498 -39.108196 2.2744875 1
nan nan nan 0
-24.504057 -18.375565 -1.0737047 1
-13.074442 -6.5747056 -2.0466652 8
-14.126012 -10.591994 -1.8458345 5
-7.8231983 -3.923975 -1.8545356 10
-8.9208031 -6.6904902 -1.9600552 8
-5.6809077 -2.8383915 -1.809836 7
-3.3367169 -2.5026841 -1.0304707 20
-4.338141 -2.5869434 1.1561847 6
-4.0074449 -3.4934394 1.4132495 3
-4.3243604 -2.5797408 0.79020399 7
-19.682875 -17.122072 5.0595236 15
-4.3161926 -2.5748646 0.43665025 7
-19.202784 -16.663166 3.1129863 10
-4.3237748 -2.5783615 0.087262027 6
-19.913731 -17.249901 1.3789216 12
nan nan nan 0
-43.784546 -37.921368 -1.0104588 1
-3.3705435 -2.0079629 -0.47674507 57
-14.849528 -12.861587 -1.7122408 5
-3.3701375 -2.0069315 -0.75424713 48
-8.931736 -7.7417822 -1.8687129 8
-3.182713 -1.8931838 -0.98222554 29
-6.3896618 -5.5502844 -1.9428855 16
nan nan nan 0
-22.165287 -16.561073 6.8796849 20
-30.592009 -15.270606 4.8004279 34
-20.269121 -15.122088 4.4483657 14
-36.298561 -18.134085 2.8278272 22
nan nan nan 0
nan nan nan 0
-24.510084 -18.246759 1.0658306 30
nan nan nan 0
nan nan nan 0
-13.118398 -6.5366731 -2.049789 7
-14.184686 -10.554996 -1.8484392 5
-7.8375278 -3.8952751 -1.8545356 12
-8.9689627 -6.6753926 -1.9652648 8
-5.6891179 -2.8164861 -1.8091472 7
-3.3400319 -2.4860895 -1.0286577 22
-4.343399 -2.568547 1.1550616 6
-4.0293465 -3.4866376 1.4164805 6
-4.3401642 -2.5676436 0.79137462 7
-19.773357 -17.073879 5.0666723 19
-4.327745 -2.5602949 0.43686816 6
-19.831438 -17.081842 3.2048669 9
-4.341804 -2.5675833 0.087436549 10
-20.069565 -17.256567 1.3853327 19
-4.3606029 -2.5776651 -0.26452106 2
-43.995262 -37.822559 -1.0121169 4
-3.3778803 -1.9955956 -0.47674507 51
-14.924892 -12.831435 -1.7155027 5
-3.3838122 -1.9983075 -0.75567567 42
-8.9694071 -7.7170496 -1.8706704 9
-3.1958721 -1.8851838 -0.98416537 23
-6.4191823 -5.5347862 -1.9456931 12
nan nan nan 0
-22.165287 -16.561073 6.8796849 20
-30.592009 -15.270606 4.8004279 34
-20.269121 -15.122088 4.4483657 14
-36.298561 -18.134085 2.8278272 22
nan nan nan 0
nan nan nan 0
-24.510084 -18.246759 1.0658306 30
nan nan nan 0
-24.336744 -18.111097 -1.0634456 1
-13.118398 -6.5366731 -2.049789 7
-14.184686 -10.554996 -1.8484392 5
-7.8375278 -3.8952751 -1.8545356 12
-8.9689627 -6.6753926 -1.9652648 8
-5.6891179 -2.8164861 -1.8091472 7
-3.3400319 -2.4860895 -1.0286577 22
-4.343399 -2.568547 1.1550616 6
-4.0293465 -3.4866376 1.4164805 6
-4.3401642 -2.5676436 0.79137462 7
-19.773357 -17.073879 5.0666723 19
-4.327745 -2.5602949 0.43686816 6
-19.831438 -17.081842 3.2048669 9
-4.341804 -2.5675833 0.087436549 10
-20.069565 -17.256567 1.3853327 19
-4.3606029 -2.5776651 -0.26452106 2
-43.995262 -37.822559 -1.0121169 4
-3.3778803 -1.9955956 -0.47674507 51
-14.924892 -12.831435 -1.7155027 5
-3.3838122 -1.9983075 -0.75567567 42
-8.9694071 -7.7170496 -1.8706704 9
-3.1958721 -1.8851838 -0.98416537 23
-6.4191823 -5.5347862 -1.9456931 12
nan nan nan 0
-22.213219 -16.476374 6.8766651 19
-30.634029 -15.158238 4.7986879 26
-20.288149 -15.026328 4.4409928 19
-36.455509 -18.053745 2.8351333 13
nan nan nan 0
nan nan nan 0
-24.603765 -18.183367 1.0671393 13
nan nan nan 0
nan nan nan 0
-13.169996 -6.5050869 -2.0543008 7
-14.251438 -10.52758 -1.8523458 5
-7.8554664 -3.8700528 -1.8555759 10
-8.986269 -6.6396542 -1.9639623 7
-5.698915 -2.7966104 -1.8091472 8
-3.372093 -2.4917269 -1.0359101 9
-4.3439317 -2.5484419 1.1528155 6
-4.0140367 -3.4489188 1.4067875 23
-4.34271 -2.5487304 0.79020399 6
-19.672634 -16.867348 5.0256853 21
-4.3516936 -2.5539918 0.43839338 6
-20.021042 -17.123827 3.2258594 4
-4.3636785 -2.5599968 0.08769834 4
-20.165749 -17.217215 1.3878187 5
nan nan nan 0
-44.166943 -37.702843 -1.013033 6
-3.3869667 -1.985046 -0.47704926 41
-15.007468 -12.811609 -1.7198517 5
-3.316633 -1.9430937 -0.73900986 29
-9.0000439 -7.6889019 -1.8714535 9
nan nan nan 0
-6.4532609 -5.5250287 -1.9501855 9
nan nan nan 0
-22.213219 -16.476374 6.8766651 19
-30.634029 -15.158238 4.7986879 26
-20.288149 -15.026328 4.4409928 19
-36.455509 -18.053745 2.8351333 13
nan nan nan 0
nan nan nan 0
-53.140377 -39.276237 2.3063331 1
nan nan nan 0
-24.341541 -17.982977 -1.0609027 1
-13.169996 -6.5050869 -2.0543008 7
-14.251438 -10.52758 -1.8523458 5
-7.8554664 -3.8700528 -1.8555759 10
-8.986269 -6.6396542 -1.9639623 7
-5.698915 -2.7966104 -1.8091472 8
-3.372093 -2.4917269 -1.0359101 9
-4.3439317 -2.5484419 1.1528155 6
-4.0140367 -3.4489188 1.4067875 23
-4.34271 -2.5487304 0.79020399 6
-19.672634 -16.867348 5.0256853 21
-4.3516936 -2.5539918 0.43839338 6
-21.791506 -18.63862 3.5115411 6
-4.3636785 -2.5599968 0.08769834 4
-46.177757 -39.433571 3.1805868 1
nan nan nan 0
-44.166943 -37.702843 -1.013033 6
-3.3869667 -1.985046 -0.47704926 41
-15.007468 -12.811609 -1.7198517 5
-3.316633 -1.9430937 -0.73900986 29
-9.0000439 -7.6889019 -1.8714535 9
nan nan nan 0
-6.4532609 -5.5250287 -1.9501855 9
nan nan nan 0
-21.105618 -15.54646 6.5173101 16
-30.704128 -15.066381 4.8018193 9
-20.284319 -14.919577 4.4292831 22
-36.604721 -17.976719 2.8420916 9
-27.557325 -20.240335 3.59003 18
nan nan nan 0
-53.455624 -39.235809 2.3143599 6
nan nan nan 0
nan nan nan 0
-13.220406 -6.4755278 -2.0588129 7
-14.31634 -10.502327 -1.8562527 5
-7.8704543 -3.8450541 -1.8560963 10
-9.0340395 -6.6287575 -1.9696059 4
-5.7168045 -2.7818975 -1.811902 7
-3.3803372 -2.480531 -1.0359101 8
-4.3565698 -2.536473 1.1539385 6
-3.9924111 -3.4073398 1.3951559 20
-4.3618088 -2.5405262 0.79215509 6
-19.453848 -16.568058 4.955626 17
-4.3709021 -2.5458112 0.43948284 5
-20.382141 -17.316057 3.2748423 18
nan nan nan 0
-20.331249 -17.24231 1.3952765 5
nan nan nan 0
-44.364166 -37.617611 -1.0146911 9
-3.3913856 -1.9725571 -0.47674507 47
-15.076458 -12.784328 -1.7228961 5
-3.3273032 -1.9345502 -0.73996222 29
-9.0405474 -7.6718016 -1.8745855 8
-3.4175158 -1.9845709 -1.048828 18
-6.4696918 -5.5020189 -1.9496238 6
nan nan nan 0
-21.105618 -15.54646 6.5173101 16
-33.669144 -16.520851 5.2659616 6
-20.284319 -14.919577 4.4292831 22
-36.604721 -17.976719 2.8420916 9
-27.553795 -20.245144 3.59003 18
nan nan nan 0
-53.479797 -39.253555 2.315407 6
nan nan nan 0
-24.622622 -18.064747 -1.0705481 1
-13.219275 -6.4778347 -2.0588129 7
-14.31634 -10.502327 -1.8562527 5
-7.8697829 -3.8464277 -1.8560963 10
-9.0340395 -6.6287575 -1.9696059 4
-5.7163191 -2.7828951 -1.811902 7
-3.3803372 -2.480531 -1.0359101 8
-4.3561273 -2.5372336 1.1539385 6
-3.9924111 -3.4073398 1.3951559 20
-4.3613653 -2.5412874 0.79215509 6
-19.453848 -16.568058 4.955626 17
-4.3704572 -2.5465744 0.43948284 5
-20.382141 -17.316057 3.2748423 18
nan nan nan 0
-46.182621 -39.173626 3.1719513 1
nan nan nan 0
-44.357605 -37.625347 -1.0146911 9
-3.391041 -1.9731491 -0.47674507 47
-15.074225 -12.786959 -1.7228961 5
-3.3273032 -1.9345502 -0.73996222 29
-9.0392075 -7.6733799 -1.8745855 8
-3.4171691 -1.9851675 -1.048828 18
-6.4687314 -5.5031481 -1.9496238 6
nan nan nan 0
-22.134914 -16.185877 6.8180814 26
nan nan nan 0
-20.348204 -14.857391 4.4318852 19
nan nan nan 0
-25.462986 -18.572206 3.3088484 18
nan nan nan 0
-53.842644 -39.23143 2.3251789 9
nan nan nan 0
nan nan nan 0
-13.270761 -6.4457045 -2.0633245 7
-14.38507 -10.475713 -1.8604201 5
-7.8831615 -3.8189335 -1.8560963 12
-3.4319785 -2.4982634 -0.74234653 3
-5.7173376 -2.7587526 -1.8091472 7
-5.9370508 -4.3268046 -1.8216063 8
-4.3712869 -2.5256665 1.1556231 6
-4.1975913 -3.5574965 1.4630073 10
-4.3851776 -2.5346932 0.79488665 5
-19.682066 -16.644289 4.9989963 18
-4.4181385 -2.5537238 0.44340485 1
-21.91787 -18.489859 3.5115411 19
nan nan nan 0
-46.364906 -39.050785 3.1750915 4
nan nan nan 0
-44.588085 -37.55402 -1.0169599 9
-3.3914592 -1.9575812 -0.47583231 46
-15.15305 -12.763151 -1.7268103 5
-3.3000116 -1.9033197 -0.73234355 43
-9.0753756 -7.6497407 -1.8765433 8
-3.4575639 -1.9925057 -1.0591741 27
-6.5027838 -5.4931202 -1.9541162 7
nan nan nan 0
-22.134914 -16.185877 6.8180814 26
nan nan nan 0
-20.348204 -14.857391 4.4318852 19
nan nan nan 0
-27.621782 -20.139624 3.5892458 1
-83.522072 -40.668888 0 1
-53.842644 -39.23143 2.3251789 9
nan nan nan 0
nan nan nan 0
-13.271885 -6.4433885 -2.0633245 7
-14.38507 -10.475713 -1.8604201 5
-7.8838277 -3.8175578 -1.8560963 12
-3.4319785 -2.4982634 -0.74234653 3
-5.7178187 -2.7577546 -1.8091472 7
-5.9370508 -4.3268046 -1.8216063 8
-4.3717275 -2.5249038 1.1556231 6
-4.1975913 -3.5574965 1.4630073 10
-4.3856201 -2.5339277 0.79488665 5
-19.682066 -16.644289 4.9989963 18
-4.4185843 -2.5529528 0.44340485 1
-21.91787 -18.489859 3.5115411 19
nan nan nan 0
-46.364906 -39.050785 3.1750915 4
nan nan nan 0
-44.594635 -37.546242 -1.0169599 9
-3.3918009 -1.9569893 -0.47583231 46
-15.155278 -12.760506 -1.7268103 5
-3.3000116 -1.9033197 -0.73234355 43
-9.0767097 -7.6481571 -1.8765433 8
-3.457911 -1.9919021 -1.0591741 27
-6.5037422 -5.4919848 -1.9541162 7
nan nan nan 0
-22.256063 -16.155546 6.8380122 17
nan nan nan 0
-20.555428 -14.898991 4.4657135 21
-37.933342 -18.301481 2.9353318 13
-25.538939 -18.484587 3.3098936 18
nan nan nan 0
-24.917236 -18.021307 1.072636 18
nan nan nan 0
nan nan nan 0
-13.332227 -6.4152603 -2.0692248 6
-14.463861 -10.456031 -1.8658895 5
-7.9037209 -3.7931855 -1.8576568 12
-3.4247198 -2.4747245 -0.7388736 37
-5.7274103 -2.7377789 -1.8091472 7
-5.9501529 -4.3046312 -1.8210019 6
-4.3931994 -2.5168898 1.1589923 5
-4.1767464 -3.5148044 1.4513756 9
-4.4222956 -2.5345576 0.7999596 3
-19.745682 -16.580219 5.0004258 16
nan nan nan 0
-19.787382 -16.574112 3.1604478 16
-65.557564 -37.53186 1.3179621 1
-46.608173 -38.978401 3.1824186 1
nan nan nan 0
-44.828972 -37.476929 -1.019316 9
-3.3986111 -1.9451376 -0.47583231 47
-15.237935 -12.739484 -1.7311594 5
-3.3066354 -1.8917888 -0.73234355 44
-9.1203909 -7.6306934 -1.8800669 8
-3.4711351 -1.9834113 -1.061114 12
-6.5210075 -5.4676833 -1.9535547 7
nan nan nan 0
-22.256063 -16.155546 6.8380122 17
nan nan nan 0
-20.555428 -14.898991 4.4657135 21
-37.933342 -18.301481 2.9353318 13
-25.538939 -18.484587 3.3098936 18
-82.929527 -40.022896 0 1
-54.236351 -39.229218 2.3362594 1
nan nan nan 0
nan nan nan 0
-13.332227 -6.4152603 -2.0692248 6
-14.463861 -10.456031 -1.8658895 5
-7.9037209 -3.7931855 -1.8576568 12
-3.4247198 -2.4747245 -0.7388736 37
-5.7274103 -2.7377789 -1.8091472 7
-5.9501529 -4.3046312 -1.8210019 6
-4.3931994 -2.5168898 1.1589923 5
-4.1767464 -3.5148044 1.4513756 9
-4.4222956 -2.5345576 0.7999596 3
-19.745682 -16.580219 5.0004258 16
nan nan nan 0
-19.787382 -16.574112 3.1604478 16
-65.557564 -37.53186 1.3179621 1
-46.608173 -38.978401 3.1824186 1
nan nan nan 0
-44.828972 -37.476929 -1.019316 9
-3.3986111 -1.9451376 -0.47583231 47
-15.237935 -12.739484 -1.7311594 5
-3.3066354 -1.8917888 -0.73234355 44
-9.1203909 -7.6306934 -1.8800669 8
-3.4711351 -1.9834113 -1.061114 12
-6.5210075 -5.4676833 -1.9535547 7
nan nan nan 0
-21.401814 -15.415892 6.557775 3
-33.280125 -15.892685 5.1782827 37
-20.763794 -14.93426 4.4991074 22
-37.99567 -18.160173 2.9349842 26
-27.734903 -19.919697 3.5853262 9
nan nan nan 0
-24.960793 -17.913834 1.0716763 36
nan nan nan 0
nan nan nan 0
-13.369062 -6.3727407 -2.0713072 7
-14.469764 -10.379755 -1.8617222 5
-7.9131527 -3.7620938 -1.8566164 13
-3.4117653 -2.4463637 -0.73409826 40
-5.7352343 -2.7157416 -1.8084587 7
-3.2863698 -2.3580725 -0.99904281 6
-4.4214625 -2.5115943 1.164046 3
-4.2099757 -3.51652 1.4584839 7
nan nan nan 0
-19.834595 -16.531311 5.007575 8
nan nan nan 0
-20.002531 -16.629999 3.1850913 26
-66.031631 -37.482578 1.3247248 1
-47.47681 -39.410114 3.2318759 16
nan nan nan 0
nan nan nan 0
-3.4057178 -1.9326682 -0.47583231 41
-15.315185 -12.709002 -1.7346387 5
-3.3114116 -1.8784467 -0.73186737 40
-9.1482973 -7.5972142 -1.8800669 8
-5.9036717 -3.3433976 -1.8073208 9
-6.54849 -5.4499826 -1.9558007 6
nan nan nan 0
-24.931053 -17.958452 7.6406717 1
-33.280125 -15.892685 5.1782827 37
-20.763794 -14.93426 4.4991074 22
-37.99567 -18.160173 2.9349842 26
-27.734903 -19.919697 3.5853262 9
-82.656128 -39.518116 0 1
-24.960793 -17.913834 1.0716763 36
nan nan nan 0
nan nan nan 0
-13.369062 -6.3727407 -2.0713072 7
-14.469768 -10.37975 -1.8617222 5
-7.9131527 -3.7620938 -1.8566164 13
-3.4121926 -2.4457684 -0.73409826 40
-5.7352343 -2.7157416 -1.8084587 7
-3.2867811 -2.3574989 -0.99904281 6
-4.4214625 -2.5115943 1.164046 3
-4.2105889 -3.5157852 1.4584839 7
nan nan nan 0
-19.837479 -16.527849 5.007575 8
nan nan nan 0
-20.00543 -16.626507 3.1850913 26
-66.031631 -37.482578 1.3247248 1
-47.483688 -39.401829 3.2318759 16
nan nan nan 0
-45.111053 -37.419434 -1.0224575 1
-3.4057178 -1.9326682 -0.47583231 41
-15.317403 -12.706328 -1.7346387 5
-3.3117392 -1.8778688 -0.73186737 40
-9.149622 -7.5956173 -1.8800669 8
-5.9042554 -3.3423676 -1.8073208 9
-6.54849 -5.4499826 -1.9558007 6
nan nan nan 0
-22.694715 -16.227308 6.9370613 7
-32.697609 -15.474668 5.0791216 39
-20.715614 -14.790151 4.4774232 27
-38.079113 -18.037041 2.9365497 59
-27.336634 -19.489325 3.5249612 6
nan nan nan 0
-55.158684 -39.298252 2.3638301 4
nan nan nan 0
nan nan nan 0
-13.424808 -6.3418875 -2.0765133 7
-14.590971 -10.389761 -1.8726614 5
-7.9306612 -3.736531 -1.8576568 12
-3.4247198 -2.4366989 -0.73496652 45
-5.7468543 -2.6967247 -1.8091472 7
-3.2811625 -2.3361557 -0.99481219 26
-26.613459 -14.985569 7.0320058 20
-4.2228355 -3.501066 1.4584839 7
-27.371532 -15.418653 4.9589686 1
nan nan nan 0
-36.862541 -20.764372 3.6984539 16
nan nan nan 0
-66.580254 -37.487309 1.3331019 1
-22.138474 -18.237186 1.5013877 4
nan nan nan 0
-44.539127 -36.683243 -1.0065757 13
-3.4232578 -1.9268494 -0.47735351 40
-15.403947 -12.687628 -1.7394227 5
-3.3225534 -1.8687015 -0.73281968 34
-9.1856041 -7.5714889 -1.8820244 8
-5.9158864 -3.3217375 -1.8073208 9
-6.5712285 -5.4301972 -1.9569237 8
nan nan nan 0
-22.694715 -16.227308 6.9370613 7
-32.697609 -15.474668 5.0791216 39
-20.715614 -14.790151 4.4774232 27
-38.079113 -18.037041 2.9365497 59
nan nan nan 0
-82.156448 -38.927509 0 1
-55.158684 -39.298252 2.3638301 4
nan nan nan 0
-26.454733 -18.839626 -1.1385916 1
-13.423701 -6.3442307 -2.0765133 7
-14.590967 -10.389767 -1.8726614 5
-7.9300094 -3.7379153 -1.8576568 12
-3.4242942 -2.4372966 -0.73496652 45
-5.7463837 -2.6977277 -1.8091472 7
-3.280755 -2.3367283 -0.99481219 26
-26.610844 -14.990214 7.0320058 20
-4.2222242 -3.5018034 1.4584839 7
-27.368841 -15.423429 4.9589686 1
nan nan nan 0
-36.858913 -20.770803 3.6984539 16
nan nan nan 0
-66.573715 -37.498924 1.3331019 1
-47.608311 -39.239388 3.2314835 1
nan nan nan 0
-44.526321 -36.698784 -1.0065757 13
-3.4229214 -1.9274468 -0.47735351 40
-15.399517 -12.693005 -1.7394227 5
-3.3222272 -1.8692813 -0.73281968 34
-9.1829605 -7.5746951 -1.8820244 8
-5.9147263 -3.3238022 -1.8073208 9
-6.5702806 -5.431344 -1.9569237 8
nan nan nan 0
-22.784006 -16.177242 6.9479322 4
-32.818226 -15.398745 5.0899076 23
-21.067818 -14.93642 4.5429106 22
-38.034866 -17.861912 2.9285476 57
-26.227039 -18.57415 3.3741786 26
-82.911888 -38.949272 0 255
-55.584442 -39.324364 2.3764813 6
nan nan nan 0
nan nan nan 0
-13.48054 -6.3164787 -2.0820663 8
-14.623309 -10.339888 -1.8724009 5
-7.9401455 -3.7105637 -1.8571367 13
-3.4243183 -2.4202399 -0.73322999 41
-5.761837 -2.681695 -1.8112134 8
-3.2845261 -2.3230326 -0.99360353 26
-26.596613 -14.866233 7.0151601 23
-4.0158777 -3.3079381 1.3828779 5
-27.971607 -15.641087 5.0588665 23
-21.260302 -17.47611 5.3378544 22
-36.83847 -20.598633 3.6895206 9
nan nan nan 0
-67.197372 -37.557213 1.3430935 2
-22.232361 -18.197596 1.5038736 14
nan nan nan 0
-22.272984 -18.230852 -0.50180435 2
-3.4292941 -1.9160855 -0.47735351 35
-15.476205 -12.670275 -1.7433369 5
-3.351985 -1.8714044 -0.73805755 24
-9.2213945 -7.55516 -1.884765 8
-5.929935 -3.3065209 -1.808614 9
-6.590137 -5.4110727 -1.9574854 8
nan nan nan 0
-24.843052 -17.639448 7.5766525 24
-34.862331 -16.357578 5.4072227 1
-21.067818 -14.93642 4.5429106 22
-38.034866 -17.861912 2.9285476 57
-26.227039 -18.57415 3.3741786 26
-82.911888 -38.949272 0 255
-55.584442 -39.324364 2.3764813 6
nan nan nan 0
-26.43343 -18.692644 -1.1349967 1
-13.48054 -6.3164787 -2.0820663 8
-14.623309 -10.339888 -1.8724009 5
-7.9401455 -3.7105637 -1.8571367 13
-3.4243183 -2.4202399 -0.73322999 41
-5.761837 -2.681695 -1.8112134 8
-3.2845261 -2.3230326 -0.99360353 26
-26.596613 -14.866233 7.0151601 23
-4.0158777 -3.3079381 1.3828779 5
-27.971607 -15.641087 5.0588665 23
-21.260302 -17.47611 5.3378544 22
-36.83847 -20.598633 3.6895206 9
nan nan nan 0
-67.197372 -37.557213 1.3430935 2
-47.886909 -39.203083 3.2415583 4
nan nan nan 0
-44.632298 -36.538258 -1.0062265 34
-3.4292941 -1.9160855 -0.47735351 35
-15.476205 -12.670275 -1.7433369 5
-3.351985 -1.8714044 -0.73805755 24
-9.2213945 -7.55516 -1.884765 8
-5.929935 -3.3065209 -1.808614 9
-6.590137 -5.4110727 -1.9574854 8
nan nan nan 0
-24.759726 -17.450588 7.5325632 39
-32.822392 -15.261136 5.082253 2
-21.057411 -14.818856 4.5294657 9
-38.047241 -17.705891 2.9247205 18
-26.277479 -18.472479 3.3723497 40
-83.070007 -38.670166 0 151
nan nan nan 0
nan nan nan 0
nan nan nan 0
-13.529458 -6.2818885 -2.086231 7
-14.700013 -10.317352 -1.8776098 5
-7.9574881 -3.6848776 -1.8581769 12
-3.4367757 -2.4111021 -0.73409826 41
-5.7646132 -2.658551 -1.8091472 8
-3.2846761 -2.3059735 -0.9911859 24
-26.722916 -14.81464 7.0348134 24
-4.031136 -3.2969611 1.3841704 14
-27.879183 -15.461918 5.032331 26
-21.338284 -17.415758 5.3421435 25
-84.282036 -46.739399 8.4286137 1
nan nan nan 0
-67.809029 -37.589027 1.3526924 3
-22.012917 -17.889948 1.484771 35
nan nan nan 0
-22.311274 -18.132494 -0.50123715 30
-3.4576709 -1.9161222 -0.48039594 19
-15.553186 -12.642889 -1.7470336 5
-3.3821201 -1.8727597 -0.74329537 100
-9.2611132 -7.5338373 -1.8875057 7
-5.9287596 -3.2787926 -1.8047343 9
-6.6165338 -5.3941975 -1.9597313 8
nan nan nan 0
-24.759726 -17.450588 7.5325632 39
-40.024334 -18.608751 6.1984215 9
-21.057411 -14.818856 4.5294657 9
-38.047241 -17.705891 2.9247205 18
-26.280704 -18.467894 3.3723497 40
-83.070007 -38.670166 0 151
-55.71524 -39.125793 2.3762195 1
nan nan nan 0
-26.59667 -18.669168 -1.1392056 1
-13.530554 -6.2795277 -2.086231 7
-14.700013 -10.317352 -1.8776098 5
-7.9581308 -3.6834886 -1.8581769 12
-3.4367757 -2.4111021 -0.73409826 41
-5.7650776 -2.6575446 -1.8091472 8
-3.2846761 -2.3059735 -0.9911859 24
-26.725502 -14.809976 7.0348134 24
-4.031136 -3.2969611 1.3841704 14
-27.881882 -15.457052 5.032331 26
-21.338284 -17.415758 5.3421435 25
-84.290192 -46.724686 8.4286137 1
nan nan nan 0
-67.815598 -37.577194 1.3526924 3
-22.012917 -17.889948 1.484771 35
nan nan nan 0
-22.314436 -18.128607 -0.50123715 30
-3.4580054 -1.9155186 -0.48039594 19
-15.555393 -12.640174 -1.7470336 5
-8.5491467 -4.730998 -1.8889511 2
-9.2624292 -7.5322208 -1.8875057 7
-5.9293318 -3.2777579 -1.8047343 9
-6.6174755 -5.3930426 -1.9597313 8
nan nan nan 0
-24.951679 -17.455847 7.5724249 27
-32.947418 -15.179613 5.0933871 18
-26.604864 -18.584932 5.7104058 16
-38.124668 -17.580282 2.9259384 1
-26.24509 -18.306337 3.3595448 50
nan nan nan 0
-55.605515 -38.759617 2.3657496 18
nan nan nan 0
nan nan nan 0
-13.601882 -6.2550011 -2.0938666 7
-14.819577 -10.324259 -1.8882886 3
-7.9731636 -3.6567054 -1.8586973 12
-3.3966973 -2.3653004 -0.72367936 32
-5.780879 -2.6403959 -1.8112134 8
-3.2887266 -2.291718 -0.98997712 24
-26.949968 -14.811627 7.080297 20
-4.0538607 -3.2920141 1.3880476 18
-28.292713 -15.55592 5.0967183 13
-21.290279 -17.253078 5.3149781 12
-37.12896 -20.413681 3.7039011 6
-21.028734 -16.998577 3.3110466 19
nan nan nan 0
-22.327778 -18.016853 1.5017803 17
nan nan nan 0
-22.422321 -18.086708 -0.50224066 20
-14.34996 -7.8777833 -2.002816 1
-15.626551 -12.607697 -1.750078 5
-8.4429626 -4.633841 -1.8618096 8
-9.3097906 -7.5169134 -1.8918124 7
-5.9407368 -3.2570405 -1.8047343 9
-6.6476183 -5.3791108 -1.9631006 9
nan nan nan 0
-24.951679 -17.455847 7.5724249 27
-39.666306 -18.274221 6.1330099 1
-26.604864 -18.584932 5.7104058 16
-76.618149 -35.326023 5.882493 1
-26.24509 -18.306337 3.3595448 50
nan nan nan 0
-55.605515 -38.759617 2.3657496 18
nan nan nan 0
-26.74777 -18.636209 -1.1428883 1
-13.601882 -6.2550011 -2.0938666 7
-14.819577 -10.324259 -1.8882886 3
-7.9731636 -3.6567054 -1.8586973 12
-3.3966973 -2.3653004 -0.72367936 32
-5.780879 -2.6403959 -1.8112134 8
-3.2887266 -2.291718 -0.98997712 24
-26.949968 -14.811627 7.080297 20
-4.0538607 -3.2920141 1.3880476 18
-28.292713 -15.55592 5.0967183 13
-21.290279 -17.253078 5.3149781 12
-37.12896 -20.413681 3.7039011 6
-21.028734 -16.998577 3.3110466 19
-61.380985 -33.732399 1.2219301 1
-48.695606 -39.30061 3.2776699 1
nan nan nan 0
-22.422321 -18.086708 -0.50224066 20
-14.34996 -7.8777833 -2.002816 1
-15.626551 -12.607697 -1.750078 5
-8.4429626 -4.633841 -1.8618096 8
-9.3097906 -7.5169134 -1.8918124 7
-5.9407368 -3.2570405 -1.8047343 9
-6.6476183 -5.3791108 -1.9631006 9
nan nan nan 0
-25.180891 -17.479105 7.6225533 26
-39.521294 -18.032137 6.1003046 20
-28.006264 -19.411659 5.9962077 26
-38.12986 -17.4135 2.9214156 1
-26.446938 -18.303417 3.3767922 42
nan nan nan 0
-46.594891 -32.225277 1.9771436 13
nan nan nan 0
nan nan nan 0
-13.635984 -6.2102332 -2.095602 6
-3.4800758 -2.4036412 -0.43938518 2
-7.9842858 -3.6264474 -1.8581769 13
-3.2980258 -2.2786076 -0.7006709 29
-5.7905178 -2.6191902 -1.8112134 8
-3.2871306 -2.2727458 -0.98695529 27
-27.284319 -14.865419 7.1538572 1
-4.0865679 -3.2938235 1.3951559 18
-28.412416 -15.486384 5.1080346 13
-21.435591 -17.241085 5.3354716 15
-37.170734 -20.259584 3.7006328 34
-21.270872 -17.065834 3.3393409 24
-61.51738 -33.514374 1.2221919 1
-22.335211 -17.888069 1.4978549 24
nan nan nan 0
-22.566504 -18.066902 -0.50398588 6
-14.409251 -7.8417373 -2.0070753 6
-15.713473 -12.58304 -1.7546445 5
-8.44911 -4.597002 -1.8594288 10
-9.3507624 -7.4935555 -1.8945529 8
-5.961123 -3.2398553 -1.8073208 9
-6.6653905 -5.3531842 -1.9625392 10
nan nan nan 0
-25.180891 -17.479105 7.6225533 26
-39.521294 -18.032137 6.1003046 20
-28.006264 -19.411659 5.9962077 26
nan nan nan 0
-26.446938 -18.303417 3.3767922 42
nan nan nan 0
-55.603367 -38.456062 2.359642 6
nan nan nan 0
-26.844666 -18.557938 -1.1441159 1
-13.635984 -6.2102332 -2.095602 6
-3.4800789 -2.403636 -0.43938518 2
-7.9842858 -3.6264474 -1.8581769 13
-3.2984235 -2.2780318 -0.7006709 29
-5.7905178 -2.6191902 -1.8112134 8
-3.2875273 -2.272172 -0.98695529 27
-27.284319 -14.865419 7.1538572 1
-4.0871429 -3.2931104 1.3951559 18
-28.412416 -15.486384 5.1080346 13
-21.438601 -17.237343 5.3354716 15
-37.170734 -20.259584 3.7006328 34
-21.273849 -17.062122 3.3393409 24
-69.353683 -37.783318 1.3779547 1
-22.338333 -17.884169 1.4978549 24
nan nan nan 0
-46.922184 -37.559067 -1.0485054 1
-14.409251 -7.8417373 -2.0070753 6
-15.71567 -12.580297 -1.7546445 5
-8.4499111 -4.5955276 -1.8594288 10
-9.3520699 -7.4919238 -1.8945529 8
-5.961688 -3.2388148 -1.8073208 9
-6.6653905 -5.3531842 -1.9625392 10
nan nan nan 0
-25.135878 -17.318146 7.5905437 30
-39.477966 -17.846153 6.0839515 25
-27.767572 -19.103045 5.9307208 20
nan nan nan 0
-26.500418 -18.203945 3.3754854 40
nan nan nan 0
-46.93573 -32.219398 1.9868283 79
nan nan nan 0
-26.917524 -18.469778 -1.1444668 18
-13.675634 -6.1707382 -2.0983787 4
-3.4945982 -2.3956945 -0.44016656 17
-7.992435 -3.5965505 -1.8571367 13
-3.2779355 -2.2470014 -0.69459325 32
-5.8018193 -2.5999429 -1.811902 8
-3.2754416 -2.2469494 -0.98091143 27
-29.959486 -16.187397 7.841167 22
-4.1004972 -3.2803335 1.395802 10
-28.559717 -15.437601 5.1248145 13
-21.023048 -16.782608 5.2172761 15
-37.151394 -20.08116 3.6916993 27
-21.389566 -17.032595 3.3481641 27
nan nan nan 0
-22.449476 -17.844931 1.5011259 31
nan nan nan 0
-22.648224 -17.996515 -0.50433499 2
-14.436537 -7.7913918 -2.0070753 6
-15.788727 -12.548613 -1.7579064 5
-8.489666 -4.5788145 -1.8646667 10
-9.3936186 -7.4715343 -1.8976851 8
-5.9665785 -3.2145505 -1.8053809 9
-6.6954589 -5.3390031 -1.9659082 9
nan nan nan 0
-25.135878 -17.318146 7.5905437 30
-39.477966 -17.846153 6.0839515 25
-27.767572 -19.103045 5.9307208 20
-76.725822 -34.712097 5.8715339 1
-26.500418 -18.203945 3.3754854 40
nan nan nan 0
-46.93573 -32.219398 1.9868283 79
nan nan nan 0
-27.055546 -18.564497 -1.1503416 1
-13.675634 -6.1707382 -2.0983787 4
-3.4945948 -2.3956997 -0.44016656 17
-7.992435 -3.5965505 -1.8571367 13
-3.2775433 -2.2475734 -0.69459325 32
-5.8018193 -2.5999429 -1.811902 8
-3.2750494 -2.2475209 -0.98091143 27
-29.959486 -16.187397 7.841167 22
-4.0999246 -3.2810493 1.395802 10
-28.559717 -15.437601 5.1248145 13
-21.020121 -16.786278 5.2172761 15
-37.151394 -20.08116 3.6916993 27
-21.386591 -17.036327 3.3481641 27
-86.957802 -46.980545 1.7246031 1
-22.446363 -17.848848 1.5011259 31
nan nan nan 0
-47.465164 -37.736179 -1.0578425 1
-14.436537 -7.7913918 -2.0070753 6
-15.786537 -12.551369 -1.7579064 5
-8.4888659 -4.5802965 -1.8646667 10
-9.3923149 -7.4731736 -1.8976851 8
-5.9660172 -3.2155917 -1.8053809 9
-6.6954589 -5.3390031 -1.9659082 9
nan nan nan 0
-25.020983 -17.116888 7.5386033 30
-39.530155 -17.712103 6.0829077 26
-26.897638 -18.373367 5.731657 18
-42.40287 -19.016695 3.239059 2
-26.538046 -18.100555 3.3726108 34
nan nan nan 0
nan nan nan 0
nan nan nan 0
-26.976557 -18.379005 -1.1443789 32
-13.716366 -6.1344461 -2.1015022 3
-3.420331 -2.3280952 -0.42974845 27
-8.0177193 -3.5759966 -1.8602579 12
-3.266669 -2.2242122 -0.69068617 35
-5.8126059 -2.5816631 -1.8125907 8
-3.2724645 -2.2298131 -0.97788954 23
