# .PCD v0.7 - Point Cloud Data file format
VERSION 0.7
FIELDS x y z intensity
SIZE 4 4 4 4
TYPE F F F F
COUNT 1 1 1 1
WIDTH 1394
HEIGHT 1
VIEWPOINT 0 0 0 1 0 0 0
POINTS 1394
DATA ascii
21.347271 -1.7984494 -1.1246412 6
34.865078 3.2297854 -0.6105774 34
11.295039 -0.95477092 -1.3855118 32
17.569881 1.6284367 -1.5376245 5
8.3103466 -0.70349556 -1.6113462 12
10.70211 0.99575073 -1.6987942 15
6.0094833 -0.51142144 -1.6055734 9
7.1264429 0.67026216 -1.6419069 13
36.617805 0.75217628 9.109498 32
37.552319 0.74521643 6.6098804 70
43.370716 0.83072197 4.5556116 52
17.555008 -2.7982297 -1.2375249 4
30.316023 0.56418419 -1.0629194 9
11.142732 -1.7845467 -1.5770811 14
15.152088 0.28095618 -1.5838183 17
7.4166307 -1.1956466 -1.590791 12
9.4972725 0.17698528 -1.6687602 10
5.5492764 -0.90342093 -1.6011678 10
6.5592713 0.12387045 -1.6257867 10
41.428707 -3.6229002 6.5663023 1
40.384033 -3.5386119 0.70699692 38
38.617828 3.4487956 2.0301118 4
21.323454 -1.8714252 -1.1237223 7
34.970749 3.1165075 -0.61223531 31
11.261976 -0.99157631 -1.3818609 37
17.533287 1.5633254 -1.5339278 5
8.3102856 -0.73271579 -1.6118224 10
10.727654 0.96037823 -1.702318 15
6.0076618 -0.53239536 -1.6055734 9
7.1263132 0.64516091 -1.6413453 12
36.617805 0.75217628 9.109498 32
37.552319 0.74521643 6.6098804 70
64.425835 1.2350039 6.769002 1
17.555008 -2.7982297 -1.2375249 4
30.316023 0.56418419 -1.0629194 9
11.142732 -1.7845467 -1.5770811 14
15.152088 0.28095618 -1.5838183 17
7.4166307 -1.1956466 -1.590791 12
9.4972725 0.17698528 -1.6687602 10
5.5492764 -0.90342093 -1.6011678 10
6.5592713 0.12387045 -1.6257867 10
41.428707 -3.6229002 6.5663023 1
40.384033 -3.5386119 0.70699692 38
38.617828 3.4487956 2.0301118 4
21.323454 -1.8714252 -1.1237223 7
34.970749 3.1165075 -0.61223531 31
11.261976 -0.99157631 -1.3818609 37
17.533287 1.5633254 -1.5339278 5
8.3102856 -0.73271579 -1.6118224 10
10.727654 0.96037823 -1.702318 15
6.0076618 -0.53239536 -1.6055734 9
7.1263132 0.64516091 -1.6413453 12
36.564415 0.62339729 9.0956059 36
37.274048 0.60952508 6.5604391 39
76.203926 -12.406395 5.3828917 9
43.713932 0.68467516 4.5914125 52
73.346603 1.1245836 2.5604014 86
17.508215 -2.8534648 -1.2349155 4
30.310314 0.45824423 -1.0626564 6
11.131548 -1.8226291 -1.5763869 14
15.135574 0.22779955 -1.5819951 18
7.4172363 -1.222326 -1.5918313 9
9.490448 0.14371911 -1.6674579 9
5.5437193 -0.92238981 -1.600479 10
6.5620899 0.10101166 -1.6263911 12
39.647648 -3.6065762 6.2857313 28
40.366459 -3.6791029 0.70690966 24
38.607246 3.3120496 2.028934 9
21.272039 -1.941758 -1.1213593 5
17.501417 1.4989159 -1.530666 5
8.2954578 -0.76059687 -1.6094416 13
10.69404 0.91973639 -1.6964451 14
6.0081716 -0.55358505 -1.60622 6
7.1236682 0.61985606 -1.6402222 13
36.564415 0.62339729 9.0956059 36
37.274048 0.60952508 6.5604391 39
76.203926 -12.406395 5.3828917 9
43.231647 0.67709875 4.5407162 1
17.508215 -2.8534648 -1.2349155 4
30.310314 0.45824423 -1.0626564 6
11.131548 -1.8226291 -1.5763869 14
15.135574 0.22779955 -1.5819951 18
7.4172363 -1.222326 -1.5918313 9
9.490448 0.14371911 -1.6674579 9
5.5437193 -0.92238981 -1.600479 10
6.5620899 0.10101166 -1.6263911 12
39.647648 -3.6065762 6.2857313 28
40.366459 -3.6791029 0.70690966 24
38.607246 3.3120496 2.028934 9
21.272039 -1.941758 -1.1213593 5
17.501417 1.4989159 -1.530666 5
8.2954578 -0.76059687 -1.6094416 13
10.69404 0.91973639 -1.6964451 14
6.0081716 -0.55358505 -1.60622 6
7.1236682 0.61985606 -1.6402222 13
36.568882 0.48941049 9.0962105 31
37.216949 0.47215199 6.5500312 39
72.859047 -12.135935 5.1496167 4
43.343227 0.51995975 4.5522146 22
73.135384 0.85323483 2.5528982 83
17.475498 -2.9139197 -1.2333499 4
30.361757 0.34772396 -1.0644101 9
11.112585 -1.8613666 -1.5746516 14
15.12139 0.17215154 -1.5804324 18
7.4054737 -1.2482802 -1.5902708 10
9.4786015 0.10878997 -1.6652874 10
5.535563 -0.94189256 -1.5991017 10
6.5624156 0.076959729 -1.6263911 13
40.332554 -3.8250985 9.3303375 26
39.356365 -3.7255597 6.2416358 30
40.367634 -3.8284452 0.7071715 22
38.656452 3.1735935 2.0308967 4
9.6557207 -0.91619855 -0.50816929 17
9.5229807 -0.90692902 -1.1685883 29
17.464596 1.4312906 -1.5269692 5
8.2950563 -0.79122955 -1.6099176 10
10.694879 0.88033098 -1.6960536 15
6.0109091 -0.57606441 -1.6075132 7
7.1210365 0.59333462 -1.6390991 12
36.568882 0.48941049 9.0962105 31
37.216949 0.47215199 6.5500312 39
72.859047 -12.135935 5.1496167 4
51.619537 0.6196354 5.4221525 3
73.135384 0.85323483 2.5528982 83
17.475498 -2.9139197 -1.2333499 4
30.361757 0.34772396 -1.0644101 9
11.112585 -1.8613666 -1.5746516 14
15.12139 0.17215154 -1.5804324 18
7.4054737 -1.2482802 -1.5902708 10
9.4786015 0.10878997 -1.6652874 10
5.535563 -0.94189256 -1.5991017 10
6.5624156 0.076959729 -1.6263911 13
40.332554 -3.8250985 9.3303375 26
39.356365 -3.7255597 6.2416358 30
40.367634 -3.8284452 0.7071715 22
42.299145 3.4730778 2.2224464 1
9.6557207 -0.91619855 -0.50816929 17
9.5229807 -0.90692902 -1.1685883 29
17.464596 1.4312906 -1.5269692 5
8.2950563 -0.79122955 -1.6099176 10
10.694879 0.88033098 -1.6960536 15
6.0109091 -0.57606441 -1.6075132 7
7.1210365 0.59333462 -1.6390991 12
36.601902 0.36207202 9.1040621 35
37.267609 0.34269324 6.5587049 29
73.008003 -12.422829 5.1631856 4
44.84148 0.38146093 4.7095299 76
67.706406 0.55338275 2.3632193 55
17.438179 -2.9702897 -1.2314365 4
30.297825 0.24121799 -1.0621303 6
11.09626 -1.8984718 -1.5732633 13
15.116927 0.11932707 -1.5799115 18
7.4010711 -1.2741225 -1.5902708 9
9.4715366 0.075642206 -1.6639849 10
5.5227718 -0.9595567 -1.5963471 12
6.5626445 0.054052148 -1.6263911 14
40.415932 -3.9754047 9.3527985 26
39.392277 -3.8677444 6.2494402 38
40.331635 -3.9671278 0.70677876 16
43.640068 3.4300044 2.2923148 2
9.4537039 -0.93030411 -0.49766719 37
35.39069 2.7745481 -0.6190418 29
9.5148191 -0.93967628 -1.1679797 31
17.42976 1.3671926 -1.5234898 5
8.2800322 -0.81896955 -1.6075369 10
10.678195 0.84143335 -1.6929214 14
6.0016527 -0.59632462 -1.6055734 10
7.1230645 0.56847394 -1.6390991 10
36.601902 0.36207202 9.1040621 35
37.267609 0.34269324 6.5587049 29
44.84148 0.38146093 4.7095299 76
73.07296 0.59740663 2.5506296 1
17.438179 -2.9702897 -1.2314365 4
30.297825 0.24121799 -1.0621303 6
11.09626 -1.8984718 -1.5732633 13
15.116927 0.11932707 -1.5799115 18
7.4010711 -1.2741225 -1.5902708 9
9.4715366 0.075642206 -1.6639849 10
5.5227718 -0.9595567 -1.5963471 12
6.5626445 0.054052148 -1.6263911 14
40.415932 -3.9754047 9.3527985 26
39.392277 -3.8677444 6.2494402 38
40.331635 -3.9671278 0.70677876 16
9.4537039 -0.93030411 -0.49766719 37
35.39069 2.7745481 -0.6190418 29
9.5148191 -0.93967628 -1.1679797 31
17.42976 1.3671926 -1.5234898 5
8.2800322 -0.81896955 -1.6075369 10
10.678195 0.84143335 -1.6929214 14
6.0016527 -0.59632462 -1.6055734 10
7.1230645 0.56847394 -1.6390991 10
36.423386 0.23950312 9.0593691 36
37.352249 0.21960425 6.5734501 34
67.555466 0.32811239 2.3578973 34
17.423317 -3.0272458 -1.2310884 4
30.373415 0.14109866 -1.0647608 9
11.077709 -1.9331253 -1.571528 13
15.104807 0.069138281 -1.5786091 18
7.4016223 -1.2995065 -1.5913112 9
9.4766607 0.044257112 -1.6648531 9
5.524292 -0.97870767 -1.5977243 10
6.5579357 0.032263938 -1.6251823 14
40.564907 -4.1259298 9.39042 24
39.769848 -4.0380297 6.3114858 30
40.382915 -4.10743 0.70791322 13
43.404739 3.2666948 2.2793615 34
9.420763 -0.95861065 -0.4960919 41
35.49192 2.6641076 -0.62065619 28
9.4968386 -0.9697085 -1.1661543 32
17.401913 1.3069527 -1.520663 5
8.2650633 -0.84517205 -1.6051561 12
10.676003 0.80564487 -1.6921384 14
5.9996424 -0.61622351 -1.6055734 10
7.1273389 0.54503721 -1.6396607 12
36.423386 0.23950312 9.0593691 36
37.352249 0.21960425 6.5734501 34
55.431477 0.29787976 5.8224969 52
67.555466 0.32811239 2.3578973 34
17.423317 -3.0272458 -1.2310884 4
30.373415 0.14109866 -1.0647608 9
11.078047 -1.9311918 -1.571528 13
15.104807 0.069138281 -1.5786091 18
7.4018483 -1.2982147 -1.5913112 9
9.4766607 0.044257112 -1.6648531 9
5.5244627 -0.97774345 -1.5977243 10
6.5579357 0.032263938 -1.6251823 14
40.565628 -4.1188498 9.39042 24
39.77055 -4.0310888 6.3114858 30
40.383633 -4.1003814 0.70791322 13
43.404739 3.2666948 2.2793615 34
9.420929 -0.95696646 -0.4960919 41
35.491455 2.670296 -0.62065619 28
9.4970083 -0.96805096 -1.1661543 32
17.401684 1.3099899 -1.520663 5
8.2650633 -0.84517205 -1.6051561 12
10.675861 0.80750817 -1.6921384 14
5.9997501 -0.61517644 -1.6055734 10
7.127244 0.54628116 -1.6396607 12
36.322109 0.11204019 9.0340033 31
36.838211 0.087961815 6.4828091 34
70.704292 -12.52649 5.006103 3
45.367634 0.085062005 4.7646689 20
61.967113 0.084493183 2.1627216 18
17.361078 -3.0788882 -1.2274354 4
30.356234 0.035053439 -1.0641471 9
11.0688 -1.9694152 -1.5711809 14
15.077606 0.016378827 -1.5757443 17
7.3972716 -1.3240441 -1.5913112 10
9.4693718 0.011166813 -1.6635509 9
5.518651 -0.99659264 -1.5970356 10
6.5628605 0.009380741 -1.6263911 12
40.437134 -4.248457 9.3640289 3
39.807812 -4.1753011 6.3196807 37
40.366585 -4.2410607 0.70786953 31
43.5877 3.1275105 2.2883894 36
9.4224968 -0.99036849 -0.4963544 42
35.585331 2.5524826 -0.62213969 26
9.5108452 -1.0030205 -1.1682839 31
17.373857 1.2469125 -1.517836 5
8.2596235 -0.87375867 -1.6046799 10
10.661376 0.76898676 -1.6893978 15
5.9831576 -0.63458353 -1.6016935 12
7.11939 0.52068204 -1.6374146 10
36.322109 0.11204019 9.0340033 31
36.838211 0.087961815 6.4828091 34
55.07914 0.094094999 5.7853889 4
67.783562 0.092615306 2.3658369 1
17.361078 -3.0788882 -1.2274354 4
30.356234 0.035053439 -1.0641471 9
11.068457 -1.971347 -1.5711809 14
15.077606 0.016378827 -1.5757443 17
7.3970408 -1.3253351 -1.5913112 10
9.4693718 0.011166813 -1.6635509 9
5.5184774 -0.99755573 -1.5970356 10
6.5628605 0.009380741 -1.6263911 12
40.436386 -4.2555146 9.3640289 3
39.807087 -4.1822486 6.3196807 37
40.365841 -4.2481055 0.70786953 31
43.5877 3.1275105 2.2883894 36
9.4223242 -0.9920131 -0.4963544 42
35.585773 2.546278 -0.62213969 26
9.5106697 -1.0046804 -1.1682839 31
17.374075 1.2438802 -1.517836 5
8.2596235 -0.87375867 -1.6046799 10
10.66151 0.76712602 -1.6893978 15
5.983047 -0.63562769 -1.6016935 12
7.1194811 0.51943952 -1.6374146 10
36.20583 -0.021031868 9.0050125 26
36.742264 -0.046945419 6.4658952 38
67.484802 -12.211188 4.7811785 1
45.342762 -0.089096025 4.7620554 16
61.577244 -0.14175254 2.1491108 40
17.342316 -3.1411643 -1.2269136 4
30.343666 -0.07618168 -1.0637087 9
11.034365 -2.0070179 -1.5673631 13
15.077565 -0.038885582 -1.5757443 17
7.3945384 -1.3528792 -1.5918313 10
9.4668865 -0.023535978 -1.6631166 9
5.5100579 -1.0168995 -1.5956583 12
6.5555735 -0.014660353 -1.6245779 10
39.857773 -4.3353333 6.3302169 31
38.431118 2.6962442 7.4749026 39
93.947243 -10.220888 8.264761 1
40.50407 -4.4128165 0.71057469 76
43.374699 2.9524503 2.276614 20
9.4310341 -1.0278956 -0.49701083 36
35.732029 2.425159 -0.62453938 22
9.5143242 -1.0403426 -1.1691967 29
17.358639 1.1788375 -1.5160965 5
8.2563658 -0.90402579 -1.6046799 10
10.656861 0.7275368 -1.6882232 13
5.9878778 -0.65834612 -1.6036335 12
7.1237664 0.49351174 -1.6379762 10
36.20583 -0.021031868 9.0050125 26
36.742264 -0.046945419 6.4658952 38
54.574398 -0.10681951 5.7323408 4
61.577244 -0.14175254 2.1491108 40
17.341768 -3.144191 -1.2269136 4
30.343666 -0.07618168 -1.0637087 9
11.034365 -2.0070179 -1.5673631 13
15.077565 -0.038885582 -1.5757443 17
7.3945384 -1.3528792 -1.5918313 10
9.4668818 -0.02518826 -1.6631166 9
5.5100579 -1.0168995 -1.5956583 12
6.5555706 -0.015804516 -1.6245779 10
39.857773 -4.3353333 6.3302169 31
38.431587 2.6895368 7.4749026 39
40.50407 -4.4128165 0.71057469 76
54.392117 3.6940069 2.8553188 6
9.4310341 -1.0278956 -0.49701083 36
35.732452 2.4189224 -0.62453938 22
9.5143242 -1.0403426 -1.1691967 29
17.358845 1.1758078 -1.5160965 5
8.2562075 -0.90546679 -1.6046799 10
10.656987 0.72567677 -1.6882232 13
5.9877629 -0.65939122 -1.6036335 12
7.1237664 0.49351174 -1.6379762 10
36.118229 -0.14075927 8.9832697 18
36.776375 -0.16894332 6.4719667 37
67.473366 -12.440336 4.7832656 6
61.511475 -0.34558648 2.1468425 80
17.299366 -3.1957839 -1.2246522 4
30.425694 -0.17727935 -1.0666022 9
11.025214 -2.0431464 -1.567016 14
15.062435 -0.088798448 -1.5741816 15
7.3828006 -1.3760448 -1.5902708 10
9.4642849 -0.056567255 -1.6626825 8
5.5066552 -1.0351658 -1.5956583 12
6.5627594 -0.037582859 -1.6263911 12
39.94133 -4.4784923 6.3458257 13
38.244396 2.5489981 7.4367747 38
93.87571 -10.528208 8.2614927 4
72.755653 4.7640982 8.9352322 30
40.392334 -4.5362253 0.70887309 86
43.0509 2.7794375 2.2590816 18
9.4697485 -1.0639099 -0.49924251 44
9.5231504 -1.0732791 -1.170718 31
17.327856 1.1159873 -1.5130521 5
8.2385273 -0.93118364 -1.601823 12
10.647016 0.68952984 -1.6862657 16
5.9831443 -0.67897081 -1.6029868 13
7.1156411 0.46923828 -1.63573 12
36.118229 -0.14075927 8.9832697 18
36.776375 -0.16894332 6.4719667 37
50.523647 -0.25776944 5.3066487 53
61.511475 -0.34558648 2.1468425 80
17.299923 -3.1927645 -1.2246522 4
30.425694 -0.17727935 -1.0666022 9
11.025571 -2.0412219 -1.567016 14
15.062435 -0.088798448 -1.5741816 15
7.3830409 -1.3747562 -1.5902708 10
9.4642944 -0.054915428 -1.6626825 8
5.5068355 -1.0342047 -1.5956583 12
6.5627656 -0.036437441 -1.6263911 12
39.942112 -4.4715214 6.3458257 13
38.243954 2.5556731 7.4367747 38
72.754822 4.7767963 8.9352322 30
40.393124 -4.5291748 0.70887309 86
54.301311 3.5164878 2.8499544 3
9.4699335 -1.0622572 -0.49924251 44
9.5233383 -1.0716169 -1.170718 31
17.327463 1.1220359 -1.5130521 5
8.2386894 -0.92974573 -1.601823 12
10.646775 0.6932463 -1.6862657 16
5.9833803 -0.67688221 -1.6029868 13
7.1155591 0.47048014 -1.63573 12
36.115089 -0.26681677 8.982666 25
36.891273 -0.29824483 6.4923501 41
38.252979 -0.32919598 4.0170288 13
17.261713 -3.2480538 -1.2227386 4
30.384914 -0.28311399 -1.0651993 9
11.003782 -2.0769353 -1.5649337 14
15.039657 -0.14116862 -1.5718374 14
7.3781972 -1.4005195 -1.5902708 12
9.4443493 -0.087772883 -1.6592095 8
5.493752 -1.0516064 -1.5929036 12
6.5553217 -0.059282042 -1.6245779 13
38.162018 2.4164121 7.4191413 46
87.724472 -10.132913 7.7228703 1
72.520912 4.5072432 8.9045038 77
40.399418 -4.6727319 0.70926577 4
9.4835281 -1.0973185 -0.50016141 42
9.6329203 -1.1180317 -1.1847129 26
17.311388 1.0603217 -1.5113125 5
8.2378311 -0.95878261 -1.602299 10
10.629415 0.65485477 -1.6831335 16
5.9737859 -0.69692254 -1.601047 12
7.1220207 0.44594699 -1.6368531 12
36.115089 -0.26681677 8.982666 25
36.891273 -0.29824483 6.4923501 41
50.554691 -0.44322824 5.3100457 1
55.948509 -0.50982457 1.9526267 27
17.261713 -3.2480538 -1.2227386 4
30.384914 -0.28311399 -1.0651993 9
11.00342 -2.078856 -1.5649337 14
15.039657 -0.14116862 -1.5718374 14
7.3779526 -1.4018072 -1.5902708 12
9.4443493 -0.087772883 -1.6592095 8
5.4935684 -1.0525651 -1.5929036 12
6.5553217 -0.059282042 -1.6245779 13
38.162018 2.4164121 7.4191413 46
87.722702 -10.148223 7.7228703 1
72.520912 4.5072432 8.9045038 77
40.398605 -4.6797833 0.70926577 4
72.307198 4.4306307 3.7947493 16
9.4833364 -1.0989738 -0.50016141 42
9.6327248 -1.1197132 -1.1847129 26
17.311573 1.0573001 -1.5113125 5
8.2378311 -0.95878261 -1.602299 10
10.629528 0.65299958 -1.6831335 16
5.9736643 -0.69796515 -1.601047 12
7.1220984 0.44470397 -1.6368531 12
36.157608 -0.3933529 8.9935379 22
36.931862 -0.42749974 6.499723 34
38.226658 -0.46909413 4.0144157 63
50.48016 -0.63642389 1.7617265 25
17.213533 -3.301234 -1.2201293 4
30.243837 -0.38739282 -1.0602889 9
10.991234 -2.1163144 -1.5642395 13
15.024154 -0.19347589 -1.5702747 13
7.361012 -1.4252216 -1.5876697 14
9.4390621 -0.12067741 -1.6583414 8
5.4922194 -1.0721972 -1.5935923 13
6.5550752 -0.082164019 -1.6245779 12
38.069782 2.2771671 7.3996005 46
87.380096 -10.417805 7.6958518 3
72.486656 4.2511616 8.8984184 55
72.284836 4.1760426 3.7927868 4
9.4967947 -1.1341454 -0.50108033 39
9.6213675 -1.1524442 -1.1838002 28
17.277861 0.99470806 -1.5080506 5
8.2246885 -0.98636132 -1.6003945 9
10.626813 0.61560392 -1.6823505 16
5.9687934 -0.71852362 -1.6004004 12
7.126039 0.41998538 -1.6374146 13
36.157608 -0.3933529 8.9935379 22
36.931862 -0.42749974 6.499723 34
52.407478 -0.64235419 5.5049911 1
55.913918 -0.70471013 1.9514925 1
17.213533 -3.301234 -1.2201293 4
30.243837 -0.38739282 -1.0602889 9
10.991234 -2.1163144 -1.5642395 13
15.024154 -0.19347589 -1.5702747 13
7.361012 -1.4252216 -1.5876697 14
9.4390621 -0.12067741 -1.6583414 8
5.4922194 -1.0721972 -1.5935923 13
6.5550752 -0.082164019 -1.6245779 12
38.069782 2.2771671 7.3996005 46
87.380096 -10.417805 7.6958518 3
72.486656 4.2511616 8.8984184 55
75.554878 4.3651652 3.9644487 9
9.4967947 -1.1341454 -0.50108033 39
9.6213675 -1.1524442 -1.1838002 28
17.277861 0.99470806 -1.5080506 5
8.2246885 -0.98636132 -1.6003945 9
10.626813 0.61560392 -1.6823505 16
5.9687934 -0.71852362 -1.6004004 12
7.126039 0.41998538 -1.6374146 13
36.029785 -0.52404714 8.9621325 28
37.49873 -0.57149458 6.5999055 34
38.336544 -0.61097562 4.026175 66
50.395046 -0.82010043 1.7588472 60
17.171947 -3.358551 -1.2180418 4
30.359627 -0.50016588 -1.0644101 9
10.966399 -2.1532397 -1.56181 15
14.991026 -0.24801062 -1.5668888 9
7.3581376 -1.4526664 -1.58819 13
9.4262476 -0.15507267 -1.6561707 9
5.4882526 -1.09232 -1.5935923 12
6.5547295 -0.10618902 -1.6245779 12
37.957809 2.1308644 7.3762474 51
87.277061 -10.730097 7.690187 25
72.380348 3.978775 8.8835115 31
42.860756 2.3167195 2.2476983 40
9.5297403 -1.1735286 -0.50304949 39
9.6146154 -1.1873959 -1.183496 31
17.261496 0.93029737 -1.5063109 5
8.2185822 -1.016198 -1.5999182 9
10.616671 0.57597643 -1.6803929 15
5.9709129 -0.74099165 -1.6016935 12
7.112936 0.39304835 -1.6340454 10
36.029785 -0.52404714 8.9621325 28
37.49873 -0.57149458 6.5999055 34
50.395046 -0.82010043 1.7588472 60
17.17136 -3.3615479 -1.2180418 4
30.359627 -0.50016588 -1.0644101 9
10.966399 -2.1532397 -1.56181 15
14.991026 -0.24801062 -1.5668888 9
7.3581376 -1.4526664 -1.58819 13
9.426219 -0.15671787 -1.6561707 9
5.4882526 -1.09232 -1.5935923 12
6.5547109 -0.10733303 -1.6245779 12
37.958183 2.1242394 7.3762474 51
87.277061 -10.730097 7.690187 25
72.381042 3.9661424 8.8835115 31
72.235527 3.8949597 3.7893848 6
9.5297403 -1.1735286 -0.50304949 39
9.6146154 -1.1873959 -1.183496 31
17.261658 0.9272846 -1.5063109 5
8.2184038 -1.0176325 -1.5999182 9
10.616772 0.57412344 -1.6803929 15
5.9707832 -0.74203372 -1.6016935 12
7.112936 0.39304835 -1.6340454 10
36.338322 -0.64905095 9.0394382 34
37.848644 -0.70235497 6.6619234 31
38.306969 -0.73757577 4.0233002 16
50.339592 -0.98618633 1.757015 48
17.150337 -3.4165208 -1.2173458 4
30.265377 -0.59901619 -1.0611657 9
10.95677 -2.1891077 -1.5614629 13
14.997579 -0.29786837 -1.5676701 9
7.3508825 -1.4765759 -1.5876697 12
9.4158039 -0.18778129 -1.6544343 9
5.4916654 -1.1119499 -1.5956583 13
6.5567441 -0.12911564 -1.6251823 12
37.938061 1.9969318 7.3710055 53
87.295364 -11.026326 7.6949806 24
72.577171 3.7355459 8.9060249 35
75.606613 3.8255353 3.965626 16
9.6446819 -1.2201846 -0.50935078 39
9.6352425 -1.2224001 -1.1865385 32
17.20743 0.8671397 -1.5013095 5
8.2052469 -1.0436394 -1.5980135 8
10.608753 0.53840899 -1.6788268 15
5.9611039 -0.76091015 -1.5997537 10
7.1214991 0.36984265 -1.63573 13
36.338322 -0.64905095 9.0394382 34
37.848644 -0.70235497 6.6619234 31
44.049419 -0.84014559 4.6269526 13
50.339592 -0.98618633 1.757015 48
17.150932 -3.4135273 -1.2173458 4
30.265377 -0.59901619 -1.0611657 9
10.957152 -2.1871953 -1.5614629 13
14.997579 -0.29786837 -1.5676701 9
7.35114 -1.4752929 -1.5876697 12
9.4158373 -0.18613791 -1.6544343 9
5.4918594 -1.1109912 -1.5956583 13
6.5567665 -0.12797126 -1.6251823 12
37.93771 2.0035534 7.3710055 53
87.297287 -11.01109 7.6949806 24
72.576515 3.7482131 8.9060249 35
75.605957 3.8387313 3.965626 16
9.6448936 -1.2185013 -0.50935078 39
9.6354551 -1.2207184 -1.1865385 32
17.207127 0.87314618 -1.5013095 5
8.2054281 -1.0422074 -1.5980135 8
10.608564 0.54211211 -1.6788268 15
5.961369 -0.75882936 -1.5997537 10
7.1214347 0.37108555 -1.63573 13
36.005978 -0.76886672 8.9573002 34
38.316109 -0.8448078 6.7447577 37
38.192455 -0.86208332 4.0115409 16
43.998886 -1.0158795 1.535665 73
17.090031 -3.4634559 -1.2138668 4
10.937321 -2.2229595 -1.5597277 13
14.988991 -0.35004476 -1.5668888 7
7.3411551 -1.4999626 -1.5866294 13
9.405283 -0.21877733 -1.6526978 10
5.4832411 -1.1291816 -1.594281 13
6.5635557 -0.15102297 -1.6269954 13
37.944473 1.8711135 7.3710055 45
87.332405 -11.325357 7.7015171 25
73.605362 3.5438409 9.0307636 35
75.668762 3.5771544 3.9682426 18
9.7495127 -1.2663277 -0.51512688 32
9.677886 -1.2604415 -1.1923189 4
17.212557 0.81319499 -1.5015268 6
8.2017403 -1.0708432 -1.5980135 9
10.595595 0.50436729 -1.6764778 14
5.9610782 -0.7799477 -1.6004004 12
7.1202526 0.34610501 -1.6351684 13
36.005978 -0.76886672 8.9573002 34
38.316109 -0.8448078 6.7447577 37
43.998886 -1.0158795 1.535665 73
17.090031 -3.4634559 -1.2138668 4
10.936934 -2.2248685 -1.5597277 13
14.988991 -0.35004476 -1.5668888 7
7.3408933 -1.5012438 -1.5866294 13
9.405283 -0.21877733 -1.6526978 10
5.4830437 -1.1301388 -1.594281 13
6.5635557 -0.15102297 -1.6269954 13
40.356415 1.9903435 7.8399739 1
87.330429 -11.3406 7.7015171 25
73.605362 3.5438409 9.0307636 35
75.668762 3.5771544 3.9682426 18
9.7492914 -1.2680295 -0.51512688 32
12.854207 -1.6769465 -1.5850936 1
17.212698 0.81019086 -1.5015268 6
8.2017403 -1.0708432 -1.5980135 9
10.595682 0.50251794 -1.6764778 14
5.9609418 -0.78098816 -1.6004004 12
7.1203132 0.34486228 -1.6351684 13
36.054008 -0.89580899 8.9699841 34
90.267288 -18.639917 12.949012 3
38.44091 -0.98181289 6.7673101 29
64.809212 -13.358135 4.6131368 6
38.181583 -1.0018648 4.010757 13
43.950123 -1.1682652 1.5340946 75
17.055855 -3.5185497 -1.2123011 4
10.916979 -2.2605176 -1.5579923 13
14.947909 -0.40130174 -1.5627216 7
7.3332143 -1.5263596 -1.5861092 14
9.4044628 -0.25160655 -1.6526978 9
5.4837685 -1.1502614 -1.5956583 10
6.5557132 -0.17374264 -1.6251823 13
37.739941 1.7289668 7.3300185 40
87.482857 -11.671062 7.7185125 6
73.604897 3.286334 9.0292425 25
72.049263 3.1538081 3.7777398 9
9.7992449 -1.3093359 -0.51801497 1
12.631848 -1.6927745 -1.5583204 7
17.339828 0.75555581 -1.5123997 10
8.1882238 -1.0981594 -1.596109 9
10.585038 0.46498194 -1.6745203 16
5.948607 -0.80050004 -1.5978138 10
7.1239076 0.32011658 -1.63573 12
36.054008 -0.89580899 8.9699841 34
38.44091 -0.98181289 6.7673101 29
64.809212 -13.358135 4.6131368 6
44.492149 -1.1671127 4.6742516 23
43.950123 -1.1682652 1.5340946 75
17.055855 -3.5185497 -1.2123011 4
10.916979 -2.2605176 -1.5579923 13
14.947909 -0.40130174 -1.5627216 7
7.3332143 -1.5263596 -1.5861092 14
9.4044628 -0.25160655 -1.6526978 9
5.4837685 -1.1502614 -1.5956583 10
6.5557132 -0.17374264 -1.6251823 13
37.739941 1.7289668 7.3300185 40
87.482857 -11.671062 7.7185125 6
73.604897 3.286334 9.0292425 25
75.458809 3.3032689 3.956598 13
9.7992449 -1.3093359 -0.51801497 1
12.631848 -1.6927745 -1.5583204 7
17.339828 0.75555581 -1.5123997 10
8.1882238 -1.0981594 -1.596109 9
10.585038 0.46498194 -1.6745203 16
5.948607 -0.80050004 -1.5978138 10
7.1239076 0.32011658 -1.63573 12
36.157177 -1.0309837 8.9965572 37
89.503067 -18.824371 12.849155 36
38.670856 -1.1295158 6.8085103 25
61.935921 -13.002554 4.41187 1
39.641434 -1.1855001 4.1646752 79
44.005478 -1.3311528 1.5361885 32
17.015999 -3.575392 -1.2103877 4
10.889242 -2.2964206 -1.5552157 15
14.946339 -0.45608589 -1.5627216 5
7.3275709 -1.5532269 -1.5861092 13
9.3985548 -0.28592524 -1.6518296 10
5.4724665 -1.1688415 -1.5935923 10
6.5526085 -0.19769698 -1.6245779 10
39.021736 1.7127235 10.44202 27
37.68227 1.587937 7.3176265 36
86.721481 -11.893141 7.6551065 20
65.694969 2.6914525 8.0571947 28
72.384628 2.9027379 3.7947493 32
12.559189 -1.7299109 -1.550106 9
17.332529 0.69159734 -1.5115299 9
8.1817112 -1.1278278 -1.5956327 8
10.569402 0.42548001 -1.6717796 15
5.9480247 -0.8226288 -1.5984604 12
7.1201644 0.29379997 -1.634607 14
36.157177 -1.0309837 8.9965572 37
89.503067 -18.824371 12.849155 36
38.670856 -1.1295158 6.8085103 25
61.935921 -13.002554 4.41187 1
39.64164 -1.1785814 4.1646752 79
44.005478 -1.3311528 1.5361885 32
17.015999 -3.575392 -1.2103877 4
10.889643 -2.2945199 -1.5552157 15
14.946339 -0.45608589 -1.5627216 5
7.3278418 -1.5519481 -1.5861092 13
9.3985548 -0.28592524 -1.6518296 10
5.4726701 -1.1678864 -1.5935923 10
6.5526085 -0.19769698 -1.6245779 10
39.021736 1.7127235 10.44202 27
37.68227 1.587937 7.3176265 36
86.723564 -11.878006 7.6551065 20
65.694969 2.6914525 8.0571947 28
72.384628 2.9027379 3.7947493 32
12.559491 -1.7277188 -1.550106 9
17.332407 0.69462246 -1.5115299 9
8.1817112 -1.1278278 -1.5956327 8
10.569327 0.42732474 -1.6717796 15
5.9481683 -0.82159066 -1.5984604 12
7.1201134 0.29504263 -1.634607 14
36.359665 -1.1574286 9.0478945 22
89.580574 -19.151096 12.869336 52
38.657055 -1.2574272 6.806776 28
61.970505 -13.22453 4.4174361 1
38.459644 -1.2711632 4.0408087 61
16.989414 -3.62867 -1.2093439 4
30.066784 -1.0152175 -1.0545894 9
10.884396 -2.3311384 -1.5555629 15
14.897529 -0.50405616 -1.5577729 5
7.3130937 -1.5741757 -1.5840282 13
9.4000158 -0.31717291 -1.6522636 10
5.473464 -1.1870502 -1.5949696 10
6.5470672 -0.21926425 -1.6233691 10
38.740044 1.5716294 10.365122 75
37.697136 1.4633514 7.3195333 36
86.545586 -12.14614 7.6429048 13
65.497734 2.4658229 8.0319433 41
72.26413 2.6579063 3.7879453 35
20.719675 -2.9140024 -1.098386 1
12.565976 -1.7710911 -1.5516272 10
17.24502 0.6338256 -1.5037016 8
8.1754971 -1.1546096 -1.5951567 8
10.570686 0.39227325 -1.6717796 14
5.9406295 -0.84063303 -1.5971673 10
7.1210523 0.2714299 -1.634607 13
36.359665 -1.1574286 9.0478945 22
89.580574 -19.151096 12.869336 52
38.657055 -1.2574272 6.806776 28
38.459644 -1.2711632 4.0408087 61
16.989414 -3.62867 -1.2093439 4
30.066784 -1.0152175 -1.0545894 9
10.884396 -2.3311384 -1.5555629 15
14.897529 -0.50405616 -1.5577729 5
7.3130937 -1.5741757 -1.5840282 13
9.4000158 -0.31717291 -1.6522636 10
5.473464 -1.1870502 -1.5949696 10
6.5470672 -0.21926425 -1.6233691 10
38.740044 1.5716294 10.365122 75
37.697136 1.4633514 7.3195333 36
86.545586 -12.14614 7.6429048 13
65.497734 2.4658229 8.0319433 41
72.26413 2.6579063 3.7879453 35
20.719675 -2.9140024 -1.098386 1
12.565976 -1.7710911 -1.5516272 10
17.24502 0.6338256 -1.5037016 8
8.1754971 -1.1546096 -1.5951567 8
10.570686 0.39227325 -1.6717796 14
5.9406295 -0.84063303 -1.5971673 10
7.1210523 0.2714299 -1.634607 13
36.578449 -1.2922075 9.1034584 26
89.750244 -19.51523 12.903433 50
38.686878 -1.3935969 6.8128476 28
61.909344 -13.437592 4.4163923 16
32.471939 -1.1870624 3.4115479 16
32.81987 -1.2169611 1.1456631 37
16.962023 -3.6847718 -1.2083002 4
30.008129 -1.118121 -1.0526602 9
10.864097 -2.3664787 -1.5538275 13
14.903132 -0.55633241 -1.5585543 5
7.3027768 -1.5986451 -1.5829879 10
9.3791685 -0.34925455 -1.6487907 10
5.4739799 -1.2071875 -1.5963471 10
6.5511107 -0.24229424 -1.6245779 12
38.677723 1.4338788 10.347029 77
38.077267 1.3450558 7.3924522 37
86.559357 -12.456326 7.6479168 18
45.187569 1.541844 5.5393023 23
71.976036 2.3957393 3.7723758 4
20.640192 -2.9763277 -1.0947104 2
12.564631 -1.8156543 -1.5522357 10
17.214766 0.57254052 -1.5008745 7
8.1714172 -1.1831402 -1.5951567 8
10.557185 0.35486814 -1.6694305 14
5.9424381 -0.86205924 -1.5984604 10
7.1146526 0.24631356 -1.6329224 13
36.578449 -1.2922075 9.1034584 26
89.750244 -19.51523 12.903433 50
38.686878 -1.3935969 6.8128476 28
38.439823 -1.4115697 4.0392408 2
38.964409 -1.444419 1.3603823 1
16.962023 -3.6847718 -1.2083002 4
30.008129 -1.118121 -1.0526602 9
10.863684 -2.3683746 -1.5538275 13
14.903132 -0.55633241 -1.5585543 5
7.3024979 -1.5999196 -1.5829879 10
9.3791685 -0.34925455 -1.6487907 10
5.4737697 -1.208143 -1.5963471 10
6.5511107 -0.24229424 -1.6245779 12
38.677723 1.4338788 10.347029 77
38.077267 1.3450558 7.3924522 37
86.557182 -12.471435 7.6479168 18
65.52578 2.2378569 8.0343761 6
20.639671 -2.9799304 -1.0947104 2
12.564315 -1.8178473 -1.5522357 10
17.214865 0.56953603 -1.5008745 7
8.1714172 -1.1831402 -1.5951567 8
10.557246 0.35302556 -1.6694305 14
5.9422874 -0.86309642 -1.5984604 10
7.114696 0.2450718 -1.6329224 13
36.408878 -1.4134921 9.0623894 30
89.28756 -19.741264 12.84672 50
32.449978 -1.3053715 3.4097185 16
32.585751 -1.3222116 1.1376363 34
16.934448 -3.7407272 -1.2072566 5
29.901691 -1.2186978 -1.0490652 5
10.848099 -2.4046714 -1.5527862 15
14.888678 -0.60784531 -1.5572519 5
7.2944832 -1.6248674 -1.5824677 13
9.3778915 -0.3819918 -1.6487907 9
5.4601407 -1.2251309 -1.5935923 10
6.542953 -0.26486835 -1.6227647 12
38.569054 1.2950367 10.316657 79
45.311733 1.3877589 5.553906 63
72.193581 2.1507392 3.7833662 2
20.597034 -3.047205 -1.0930036 2
12.525983 -1.856959 -1.5482805 9
17.189365 0.50862396 -1.4984825 6
8.1599541 -1.2105744 -1.5937281 9
10.555945 0.31609672 -1.6690389 13
5.9392385 -0.88383365 -1.5984604 10
7.1155076 0.22023539 -1.6329224 13
36.408878 -1.4134921 9.0623894 30
89.28756 -19.741264 12.84672 50
38.688057 -1.5559187 4.065896 1
39.026539 -1.5831523 1.3627381 1
16.934448 -3.7407272 -1.2072566 5
29.901691 -1.2186978 -1.0490652 5
10.848099 -2.4046714 -1.5527862 15
14.888678 -0.60784531 -1.5572519 5
7.2944832 -1.6248674 -1.5824677 13
9.3778915 -0.3819918 -1.6487907 9
5.4601407 -1.2251309 -1.5935923 10
6.542953 -0.26486835 -1.6227647 12
38.569054 1.2950367 10.316657 79
86.481094 -12.768769 7.6450839 1
45.311733 1.3877589 5.553906 63
20.597034 -3.047205 -1.0930036 2
12.525983 -1.856959 -1.5482805 9
17.189365 0.50862396 -1.4984825 6
8.1599541 -1.2105744 -1.5937281 9
10.555945 0.31609672 -1.6690389 13
5.9392385 -0.88383365 -1.5984604 10
7.1155076 0.22023539 -1.6329224 13
36.505245 -1.5512477 9.0877552 39
88.782272 -19.971117 12.78444 30
37.741188 -1.6300756 6.6480451 26
38.346767 -1.6830076 4.0306172 28
32.603149 -1.442628 1.1384215 9
16.901157 -3.7983902 -1.2058648 4
29.991873 -1.3324922 -1.0523973 6
10.827139 -2.4416878 -1.5510509 15
14.863995 -0.66141921 -1.5549079 5
7.2908626 -1.6521338 -1.5829879 10
9.3592119 -0.41560018 -1.6457518 9
5.4532704 -1.2445985 -1.5929036 10
6.5443616 -0.28895393 -1.6233691 12
38.501122 1.1514907 10.297271 71
37.737568 1.0626963 7.3247757 34
73.631584 -11.147229 6.5122771 13
42.863289 1.155291 5.2530127 59
74.482063 1.9458549 3.9029536 1
20.590668 -3.123426 -1.0932662 3
12.504373 -1.9006172 -1.546455 8
17.136341 0.44418406 -1.4936985 6
8.1603146 -1.2412131 -1.5946803 8
10.552098 0.27727333 -1.6682559 14
5.9287972 -0.90450144 -1.5965205 10
7.1211376 0.1942903 -1.6340454 10
36.505245 -1.5512477 9.0877552 39
88.782272 -19.971117 12.78444 30
37.741188 -1.6300756 6.6480451 26
38.346767 -1.6830076 4.0306172 28
39.087864 -1.7291588 1.3650937 13
16.900494 -3.8013396 -1.2058648 4
29.991873 -1.3324922 -1.0523973 6
10.827139 -2.4416878 -1.5510509 15
14.863995 -0.66141921 -1.5549079 5
7.2908626 -1.6521338 -1.5829879 10
9.3591394 -0.41723368 -1.6457518 9
5.4532704 -1.2445985 -1.5929036 10
6.544311 -0.29009613 -1.6233691 12
38.50132 1.144771 10.297271 71
37.737755 1.0561099 7.3247757 34
73.631584 -11.147229 6.5122771 13
45.599503 1.221367 5.5885897 1
20.590668 -3.123426 -1.0932662 3
12.504373 -1.9006172 -1.546455 8
17.136417 0.44119319 -1.4936985 6
8.1600981 -1.2426374 -1.5946803 8
10.552146 0.2754316 -1.6682559 14
5.9286394 -0.90553617 -1.5965205 10
7.1211376 0.1942903 -1.6340454 10
36.623493 -1.6779505 9.118557 39
89.026894 -20.336554 12.829323 42
38.306168 -1.7817302 6.7486615 38
38.44529 -1.81508 4.0415931 38
16.853762 -3.8495803 -1.2034295 5
27.249586 -1.301398 -0.95620662 4
10.809329 -2.4753642 -1.5496626 15
14.767344 -0.70620614 -1.5450107 4
7.2805791 -1.675203 -1.5819476 10
9.3577051 -0.44826743 -1.6457518 10
5.4444318 -1.2615867 -1.5915263 12
6.5408902 -0.31168154 -1.6227647 13
38.169334 1.0081851 10.207448 48
37.255272 0.91891938 7.2304096 38
71.736038 -11.103676 6.3477707 6
42.876984 1.0058972 5.2542295 73
20.516054 -3.1817372 -1.089853 3
35.640327 0.79803687 -0.6216597 13
12.471029 -1.9378781 -1.5431083 9
17.102928 0.38357332 -1.4906541 5
8.1462336 -1.2681786 -1.5927758 9
10.53819 0.24009405 -1.6659068 15
5.9279904 -0.92556453 -1.5971673 10
7.1144366 0.17049485 -1.6323608 13
36.623493 -1.6779505 9.118557 39
89.026894 -20.336554 12.829323 42
38.306168 -1.7817302 6.7486615 38
38.445602 -1.80837 4.0415931 38
39.076927 -1.8585323 1.3649193 34
16.854431 -3.8466387 -1.2034295 5
29.964828 -1.4308705 -1.0516081 1
10.809761 -2.4734774 -1.5496626 15
14.767344 -0.70620614 -1.5450107 4
7.2808709 -1.6739322 -1.5819476 10
9.3577824 -0.44663417 -1.6457518 10
5.4446516 -1.2606366 -1.5915263 12
6.5409441 -0.31053993 -1.6227647 13
38.169159 1.014847 10.207448 48
37.255112 0.9254216 7.2304096 38
71.737976 -11.091155 6.3477707 6
42.876804 1.0133805 5.2542295 73
20.516609 -3.1781566 -1.089853 3
35.640045 0.81047153 -0.6216597 13
12.471368 -1.9357016 -1.5431083 9
17.102795 0.38954335 -1.4906541 5
8.1464539 -1.2667568 -1.5927758 9
10.538105 0.24377257 -1.6659068 15
5.9283133 -0.92349523 -1.5971673 10
7.1144066 0.17173655 -1.6323608 13
36.67799 -1.8087639 9.1336555 41
88.979477 -20.652788 12.832802 51
38.656277 -1.9332457 6.8115468 30
38.453953 -1.9433115 4.0431609 53
16.831184 -3.9031925 -1.2027336 5
27.364649 -1.4026392 -0.96041548 4
10.781772 -2.5067031 -1.5468861 15
14.777205 -0.758385 -1.5463129 5
7.2797446 -1.700452 -1.5829879 10
9.3438721 -0.47866911 -1.6435813 9
5.4448962 -1.2807384 -1.5929036 10
6.5349751 -0.33312476 -1.621556 13
37.996212 0.87751347 10.160275 59
37.098633 0.79194719 7.1994314 36
71.536461 -11.315815 6.3333898 25
42.875118 0.8636058 5.2536206 69
74.708252 1.4429897 3.914206 4
20.461004 -3.2427158 -1.0874901 3
12.452281 -1.9772755 -1.5415872 9
17.049271 0.32877013 -1.4858702 5
8.1468287 -1.2959574 -1.5937281 10
10.533955 0.20688711 -1.6651237 13
5.9155145 -0.94266051 -1.5945808 10
7.1198339 0.14700533 -1.6334839 14
36.67799 -1.8087639 9.1336555 41
88.979477 -20.652788 12.832802 51
38.656277 -1.9332457 6.8115468 30
38.453617 -1.9500229 4.0431609 53
16.831184 -3.9031925 -1.2027336 5
29.907251 -1.5327766 -1.0497667 1
10.781334 -2.5085847 -1.5468861 15
14.777205 -0.758385 -1.5463129 5
7.279448 -1.7017225 -1.5829879 10
9.3438721 -0.47866911 -1.6435813 9
5.4446726 -1.2816887 -1.5929036 10
6.5349751 -0.33312476 -1.621556 13
37.996212 0.87751347 10.160275 59
37.098633 0.79194719 7.1994314 36
71.534492 -11.3283 6.3333898 25
42.875118 0.8636058 5.2536206 69
83.863968 1.6203883 4.3941269 13
20.460438 -3.2462866 -1.0874901 3
12.451935 -1.9794488 -1.5415872 9
17.049328 0.32579446 -1.4858702 5
8.1468287 -1.2959574 -1.5937281 10
10.533991 0.20504861 -1.6651237 13
5.9153495 -0.94369292 -1.5945808 10
7.1198597 0.1457627 -1.6334839 14
36.739288 -1.9403617 9.1505671 40
88.889977 -20.959282 12.830366 76
38.550945 -2.0629122 6.794199 37
38.426712 -2.0831633 4.0410705 31
16.781046 -3.9533331 -1.2001243 5
10.77733 -2.547344 -1.5475802 14
14.757089 -0.80901212 -1.5444899 4
7.2734632 -1.7271221 -1.5829879 12
9.3347692 -0.51088035 -1.6422788 10
5.4308181 -1.2984439 -1.5901489 13
6.5337725 -0.35593402 -1.621556 13
37.634449 0.73768491 10.062699 52
37.115891 0.66270858 7.2022905 39
71.487137 -11.576739 6.332736 24
42.850578 0.71348119 5.2502742 57
73.22007 1.1584895 3.8359637 3
20.387375 -3.307687 -1.0842083 4
12.420459 -2.0189178 -1.5385448 9
17.02297 0.26584411 -1.4834782 5
8.1301441 -1.3224149 -1.5913472 10
10.519829 0.16803379 -1.6627746 14
5.9072533 -0.96355671 -1.5932875 10
7.1154532 0.12082297 -1.6323608 10
36.739288 -1.9403617 9.1505671 40
88.889977 -20.959282 12.830366 76
38.550945 -2.0629122 6.794199 37
38.426712 -2.0831633 4.0410705 31
16.781046 -3.9533331 -1.2001243 5
10.77733 -2.547344 -1.5475802 14
14.757089 -0.80901212 -1.5444899 4
7.2734632 -1.7271221 -1.5829879 12
9.3347692 -0.51088035 -1.6422788 10
5.4308181 -1.2984439 -1.5901489 13
6.5337725 -0.35593402 -1.621556 13
37.634449 0.73768491 10.062699 52
37.115891 0.66270858 7.2022905 39
71.487137 -11.576739 6.332736 24
42.850578 0.71348119 5.2502742 57
83.699371 1.3249424 4.3852296 81
20.387375 -3.307687 -1.0842083 4
12.420459 -2.0189178 -1.5385448 9
17.02297 0.26584411 -1.4834782 5
8.1301441 -1.3224149 -1.5913472 10
10.519829 0.16803379 -1.6627746 14
5.9072533 -0.96355671 -1.5932875 10
7.1154532 0.12082297 -1.6323608 10
36.831234 -2.0806093 9.1753292 37
89.060524 -21.344379 12.866203 76
38.548042 -2.2044756 6.7950659 36
38.334423 -2.2191095 4.0321856 1
16.739765 -4.0084176 -1.1982107 5
10.156522 -2.4397054 -1.4594247 10
14.734166 -0.8619352 -1.5424061 4
7.2623315 -1.7526193 -1.5819476 10
9.3352928 -0.54523361 -1.6427131 9
5.4306917 -1.3194784 -1.5915263 13
6.532424 -0.37987912 -1.621556 10
37.269859 0.59384876 9.9644756 41
36.99538 0.52491158 7.1784611 39
70.21328 -11.634673 6.2235742 20
42.852909 0.55642116 5.2502742 51
73.163918 0.88938469 3.8328238 80
20.360338 -3.3799341 -1.0834205 4
12.400738 -2.0623908 -1.5370237 10
16.96406 0.20271976 -1.4782592 4
8.1349268 -1.3538179 -1.5932519 10
10.512968 0.12938119 -1.6616001 14
5.9060636 -0.98559964 -1.5939342 10
7.1061053 0.094606653 -1.6301147 14
36.831234 -2.0806093 9.1753292 37
89.060524 -21.344379 12.866203 76
38.548042 -2.2044756 6.7950659 36
16.739067 -4.0113387 -1.1982107 5
10.156522 -2.4397054 -1.4594247 10
14.734166 -0.8619352 -1.5424061 4
7.2623315 -1.7526193 -1.5819476 10
9.3351974 -0.54686296 -1.6427131 9
5.4306917 -1.3194784 -1.5915263 13
6.5323577 -0.38101923 -1.621556 10
37.269966 0.58734393 9.9644756 41
36.995464 0.51845461 7.1784611 39
70.21328 -11.634673 6.2235742 20
42.853004 0.54894185 5.2502742 51
73.16407 0.87661517 3.8328238 80
20.360338 -3.3799341 -1.0834205 4
12.400738 -2.0623908 -1.5370237 10
16.964092 0.19975898 -1.4782592 4
8.1346903 -1.3552377 -1.5932519 10
10.51299 0.12754633 -1.6616001 14
5.9058919 -0.98663044 -1.5939342 10
7.1061053 0.094606653 -1.6301147 14
36.887093 -2.2064972 9.1910315 25
80.430344 -19.557907 11.62826 13
38.565098 -2.3337791 6.7994032 37
16.711134 -4.0632868 -1.197167 5
9.9559641 -2.4263961 -1.4316592 23
14.733709 -0.91094381 -1.5426667 4
7.2588549 -1.7772752 -1.5824677 10
9.3284178 -0.57751328 -1.6418447 10
5.4192877 -1.3357493 -1.5894603 14
6.5407434 -0.40327328 -1.6239735 9
36.945698 0.45965207 9.8772373 38
36.947906 0.3952392 7.1689291 36
69.906647 -11.822173 6.1998239 25
43.239193 0.41052529 5.2974315 51
69.366928 0.60083002 3.6336854 9
20.272715 -3.4344997 -1.0793511 4
12.376705 -2.1005929 -1.534894 9
16.922325 0.14313345 -1.4745625 5
8.1180544 -1.3801469 -1.5908711 10
10.505948 0.092614785 -1.6604255 12
5.9002066 -1.0058031 -1.5932875 10
7.1039438 0.071015507 -1.6295532 12
36.887093 -2.2064972 9.1910315 25
89.20816 -21.692839 12.897865 1
38.565098 -2.3337791 6.7994032 37
16.711842 -4.06037 -1.197167 5
9.9563885 -2.4246585 -1.4316592 23
14.733709 -0.91094381 -1.5426667 4
7.2591648 -1.7760082 -1.5824677 10
9.328517 -0.57588524 -1.6418447 10
5.4195209 -1.3348033 -1.5894603 14
6.5408134 -0.40213171 -1.6239735 9
36.945614 0.46610028 9.8772373 38
36.947834 0.40168789 7.1689291 36
69.908714 -11.809971 6.1998239 25
43.23912 0.41807193 5.2974315 51
73.094055 0.64611506 3.8290293 68
20.273314 -3.4309611 -1.0793511 4
12.377072 -2.0984325 -1.534894 9
16.922274 0.14904043 -1.4745625 5
8.1182957 -1.3787298 -1.5908711 10
10.505916 0.09628205 -1.6604255 12
5.9005575 -1.0037434 -1.5932875 10
7.103931 0.072255373 -1.6295532 12
36.963909 -2.340605 9.2121706 1
79.972214 -19.742399 11.571895 36
38.564087 -2.4688537 6.8007045 34
56.330566 -13.883976 4.044301 4
16.666092 -4.1109085 -1.1949055 4
9.8973961 -2.4468994 -1.4243708 27
14.675855 -0.95880991 -1.5369366 4
7.2434292 -1.7989737 -1.5803869 10
9.3190813 -0.60796511 -1.6405425 9
5.4218211 -1.3554667 -1.5915263 14
6.5393701 -0.42496097 -1.6239735 9
36.980827 0.33744594 9.8862839 36
36.92202 0.27251083 7.1636868 34
69.665825 -12.019202 6.1819568 20
43.468601 0.26857111 5.3254213 37
69.363541 0.37077066 3.6334236 84
20.261213 -3.5017073 -1.0793511 4
12.342776 -2.1369636 -1.5315473 9
16.875372 0.089705482 -1.4704309 5
8.1061792 -1.4058001 -1.5894427 12
10.488903 0.059503388 -1.6576849 13
5.8946381 -1.0239202 -1.5926409 10
7.1041398 0.047457591 -1.6295532 12
36.963909 -2.340605 9.2121706 1
79.972214 -19.742399 11.571895 36
38.564087 -2.4688537 6.8007045 34
96.79026 -23.859278 6.9509301 1
16.666092 -4.1109085 -1.1949055 4
9.8969698 -2.448627 -1.4243708 27
14.675855 -0.95880991 -1.5369366 4
7.2431149 -1.8002378 -1.5803869 10
9.3190813 -0.60796511 -1.6405425 9
5.4215846 -1.356413 -1.5915263 14
6.5393701 -0.42496097 -1.6239735 9
36.980827 0.33744594 9.8862839 36
36.92202 0.27251083 7.1636868 34
69.663719 -12.031362 6.1819568 20
43.468601 0.26857111 5.3254213 37
69.363541 0.37077066 3.6334236 84
20.260601 -3.5052435 -1.0793511 4
12.342403 -2.139118 -1.5315473 9
16.875389 0.086760178 -1.4704309 5
8.1061792 -1.4058001 -1.5894427 12
10.488914 0.057672728 -1.6576849 13
5.8944597 -1.024949 -1.5926409 10
7.1041479 0.046217684 -1.6295532 12
77.510025 -19.436117 11.225701 23
38.682518 -2.6188228 6.8232565 30
56.073666 -14.038846 4.0295148 6
16.624302 -4.1652913 -1.1929921 5
9.8447123 -2.4740055 -1.4181236 32
14.652398 -1.0112264 -1.5348531 4
7.2364683 -1.8267732 -1.5803869 10
9.3045082 -0.64127344 -1.6383717 10
5.4119191 -1.375088 -1.5901489 13
6.5305085 -0.44842988 -1.6221604 9
37.001137 0.20201005 9.8914537 36
36.866325 0.13696629 7.1527252 32
67.313736 -11.879687 5.9771409 9
43.779469 0.11006102 5.3634515 36
67.302269 0.11293865 3.5253499 53
20.112406 -3.5555644 -1.0721308 4
12.327149 -2.1830416 -1.5306345 9
16.833252 0.024834305 -1.4667341 4
8.1058044 -1.4363587 -1.5903949 10
10.471771 0.019189332 -1.6549443 15
5.8906636 -1.0465463 -1.5926409 12
7.10427 0.020179369 -1.6295532 10
77.510025 -19.436117 11.225701 23
38.682518 -2.6188228 6.8232565 30
96.624741 -24.194481 6.9453635 16
16.623575 -4.1681929 -1.1929921 5
9.8447123 -2.4740055 -1.4181236 32
14.652398 -1.0112264 -1.5348531 4
7.2364683 -1.8267732 -1.5803869 10
9.3043957 -0.64289737 -1.6383717 10
5.4119191 -1.375088 -1.5901489 13
6.5304303 -0.44956961 -1.6221604 9
37.001171 0.19555214 9.8914537 36
36.866348 0.13053189 7.1527252 32
67.313736 -11.879687 5.9771409 9
43.779488 0.10242005 5.3634515 36
69.421883 0.10452192 3.6364329 1
20.112406 -3.5555644 -1.0721308 4
12.327149 -2.1830416 -1.5306345 9
16.833258 0.021896347 -1.4667341 4
8.1055536 -1.4377732 -1.5903949 10
10.471775 0.017361661 -1.6549443 15
5.8904805 -1.0475745 -1.5926409 12
7.10427 0.020179369 -1.6295532 10
77.09623 -19.618626 11.175598 57
38.736992 -2.7583773 6.8345323 30
55.968723 -14.220366 4.0255136 4
41.780479 -3.0188944 1.4615908 13
16.587173 -4.2206545 -1.1914264 5
9.8096294 -2.5016141 -1.4143058 28
14.61902 -1.0602127 -1.5317276 4
7.2253108 -1.8508058 -1.5793464 10
9.3020954 -0.67537189 -1.6383717 13
5.4070864 -1.3939707 -1.5901489 14
6.5336599 -0.47271094 -1.6233691 9
36.774616 0.065956898 9.8307104 31
36.807682 0.0018332475 7.1412868 30
68.088051 -12.261587 6.0496979 16
40.022713 -0.046471462 4.9028316 3
60.534039 -0.1207527 3.1706431 3
20.085133 -3.6230881 -1.0713432 4
12.290154 -2.2207596 -1.5269836 9
16.783421 -0.03676955 -1.4623851 5
8.0956573 -1.4651833 -1.5894427 12
10.471772 -0.019193223 -1.6549443 13
5.8891644 -1.0685616 -1.5932875 13
7.1091695 -0.0046202769 -1.6306763 13
77.09623 -19.618626 11.175598 57
38.736992 -2.7583773 6.8345323 30
41.780479 -3.0188944 1.4615908 13
16.58791 -4.2177591 -1.1914264 5
9.8100662 -2.499902 -1.4143058 28
14.61902 -1.0602127 -1.5317276 4
7.2256336 -1.8495446 -1.5793464 10
9.3022118 -0.67374831 -1.6383717 13
5.40733 -1.3930269 -1.5901489 14
6.5337424 -0.47157058 -1.6233691 9
36.774605 0.072375275 9.8307104 31
36.807678 0.0082573984 7.1412868 30
68.090187 -12.249703 6.0496979 16
43.995476 -0.042953055 5.3899207 16
67.239838 -0.12189133 3.522079 18
20.085766 -3.6195824 -1.0713432 4
12.29054 -2.2186146 -1.5269836 9
16.783432 -0.030911028 -1.4623851 5
8.0959129 -1.4637703 -1.5894427 12
10.471778 -0.015537885 -1.6549443 13
5.8895369 -1.0665058 -1.5932875 13
7.10917 -0.0033784993 -1.6306763 13
77.061913 -19.882221 11.180121 39
39.098381 -2.9144351 6.9000192 26
16.54727 -4.2658882 -1.189513 5
9.7897387 -2.5293181 -1.4125705 29
14.607985 -1.1081221 -1.5309463 4
7.221827 -1.8741112 -1.5798666 10
9.2851973 -0.70347917 -1.6357671 10
5.3933811 -1.4085144 -1.5873942 14
6.5297232 -0.49305272 -1.6227647 7
36.344765 -0.049054064 9.7156868 35
36.93512 -0.11418512 7.16607 26
67.987953 -12.464203 6.044251 20
37.719631 -0.16256034 4.6204967 13
63.227127 -0.32455957 3.3118191 4
20.046642 -3.6812074 -1.0698992 4
12.268473 -2.2566638 -1.5251582 9
16.750862 -0.086408496 -1.459558 5
8.0837727 -1.4892738 -1.5880141 10
10.459321 -0.050209589 -1.6529866 14
5.8812184 -1.0851526 -1.5919942 12
7.1018119 -0.026931372 -1.6289917 10
77.061913 -19.882221 11.180121 39
39.098381 -2.9144351 6.9000192 26
41.15736 -3.1111295 1.4401276 1
16.54727 -4.2658882 -1.189513 5
9.7897387 -2.5293181 -1.4125705 29
14.607985 -1.1081221 -1.5309463 4
7.221827 -1.8741112 -1.5798666 10
9.2851973 -0.70347917 -1.6357671 10
5.3933811 -1.4085144 -1.5873942 14
6.5297232 -0.49305272 -1.6227647 7
36.344765 -0.049054064 9.7156868 35
36.93512 -0.11418512 7.16607 26
70.214684 -12.872482 6.242312 1
40.275475 -0.17326629 4.9338646 13
67.733376 -0.34736797 3.5479851 1
20.046642 -3.6812074 -1.0698992 4
12.268473 -2.2566638 -1.5251582 9
16.750862 -0.086408496 -1.459558 5
8.0837727 -1.4892738 -1.5880141 10
10.459321 -0.050209589 -1.6529866 14
5.8812184 -1.0851526 -1.5919942 12
7.1018119 -0.026931372 -1.6289917 10
39.884468 -10.43687 5.7892528 47
39.137062 -3.0547256 6.9086933 24
90.678551 -23.700226 6.5350013 6
41.106403 -3.2516263 1.4387317 13
16.508152 -4.3173075 -1.1877733 5
9.7640877 -2.5590744 -1.4101409 31
14.616422 -1.1600885 -1.5322485 5
7.2176056 -1.8999323 -1.5803869 10
9.2777767 -0.73549825 -1.6348989 12
5.3930774 -1.4285666 -1.5887716 13
6.5303807 -0.51603305 -1.6233691 7
36.329887 -0.17585239 9.7118092 36
36.770069 -0.24205022 7.1341381 30
67.295296 -12.580159 5.9865103 3
37.788315 -0.29475901 4.6290154 59
60.814003 -0.52463663 3.1854279 69
20.014038 -3.7474833 -1.068849 4
12.238571 -2.2953553 -1.5224199 8
16.690685 -0.14437865 -1.4543391 5
8.0881729 -1.5192965 -1.5899187 10
10.454145 -0.086680353 -1.6522038 14
5.8750215 -1.1052281 -1.5913476 10
7.1041102 -0.051737312 -1.6295532 12
77.066284 -20.17053 11.190907 1
39.137062 -3.0547256 6.9086933 24
43.263355 -3.4221396 1.5142891 1
16.508152 -4.3173075 -1.1877733 5
9.7636404 -2.5607786 -1.4101409 31
14.616422 -1.1600885 -1.5322485 5
7.2172742 -1.9011921 -1.5803869 10
9.2777767 -0.73549825 -1.6348989 12
5.392828 -1.4295079 -1.5887716 13
6.5303807 -0.51603305 -1.6233691 7
36.329887 -0.17585239 9.7118092 36
36.770069 -0.24205022 7.1341381 30
70.473038 -13.187012 6.2695484 6
37.788315 -0.29475901 4.6290154 59
60.814003 -0.52463663 3.1854279 69
20.013382 -3.7509761 -1.068849 4
12.238171 -2.2974913 -1.5224199 8
16.69066 -0.14729172 -1.4543391 5
8.0881729 -1.5192965 -1.5899187 10
10.45413 -0.08850494 -1.6522038 14
5.8748283 -1.1062534 -1.5913476 10
7.1041007 -0.052977212 -1.6295532 12
41.061417 -3.3274443 10.247355 2
39.881836 -10.592519 5.7944713 50
39.140331 -3.1993523 6.9112954 16
90.668213 -24.052887 6.5405684 58
42.463688 -3.5155809 1.4867184 1
16.458473 -4.3688173 -1.185338 5
9.7541885 -2.5965469 -1.4101409 32
11.442847 -0.95086741 -1.1991283 3
7.2149816 -1.9288977 -1.5814273 10
9.2553892 -0.76787382 -1.6314259 10
5.3921928 -1.4505161 -1.5901489 14
6.5332813 -0.54036307 -1.6245779 10
36.454575 -0.31005895 9.7454119 36
36.678139 -0.37589845 7.1165037 32
64.82711 -12.3765 5.7710171 6
37.945778 -0.43505976 4.6484866 46
50.474136 -0.6212244 2.64362 4
19.967623 -3.8182054 -1.0671424 4
12.227231 -2.3418639 -1.5221158 9
16.650166 -0.20797825 -1.45086 6
8.0777292 -1.5480061 -1.5889664 10
10.446328 -0.12673402 -1.6510291 13
5.8778486 -1.1291472 -1.5932875 6
7.0989876 -0.078963667 -1.6284301 10
41.061417 -3.3274443 10.247355 2
76.891357 -20.426159 11.176295 1
39.140331 -3.1993523 6.9112954 16
90.668213 -24.052887 6.5405684 58
42.463688 -3.5155809 1.4867184 1
16.45771 -4.3716903 -1.185338 5
9.7541885 -2.5965469 -1.4101409 32
14.827647 -1.2315278 -1.5549079 3
7.2149816 -1.9288977 -1.5814273 10
9.2552547 -0.76948917 -1.6314259 10
5.3921928 -1.4505161 -1.5901489 14
6.5331869 -0.54150331 -1.6245779 10
36.454521 -0.31642148 9.7454119 36
36.67807 -0.38229999 7.1165037 32
70.553879 -13.469975 6.2810965 1
37.945705 -0.44168252 4.6484866 46
