# .PCD v0.7 - Point Cloud Data file format
VERSION 0.7
FIELDS x y z intensity
SIZE 4 4 4 4
TYPE F F F F
COUNT 1 1 1 1
WIDTH 1454
HEIGHT 1
VIEWPOINT 0 0 0 1 0 0 0
POINTS 1454
DATA ascii
6.1421866 6.7172003 -1.1116953 5
4.3167839 6.8173327 -0.70150989 18
4.4634328 4.8785381 -1.2761253 5
4.2750926 6.7591982 -1.2626438 6
3.4860628 3.8068192 -1.3727878 18
3.2067506 5.0835643 -1.3774272 6
20.632671 19.571787 6.0322781 17
18.162806 24.785582 7.6412759 42
22.388933 21.281759 2.1521823 6
37.14278 50.54184 6.5886903 6
27.097878 36.845406 1.5959539 6
9.2110186 8.7527647 -0.88387173 4
11.788088 16.020641 -0.69683397 9
5.9750299 5.6698909 -1.1498393 5
6.2444124 8.4848633 -1.0998955 4
4.4178429 4.1835313 -1.2869905 17
4.3062124 5.8522997 -1.2750127 20
3.5536549 3.354645 -1.3904333 12
3.3104355 4.5014615 -1.3834296 5
14.813786 16.214243 5.0543065 32
19.282393 30.753868 9.7034092 16
19.01804 20.822542 4.4508972 30
20.304907 32.259995 7.3957877 58
19.227617 21.051968 2.4913468 39
15.304039 24.246895 3.5112369 8
15.052649 16.47562 0.38892686 12
16.104338 25.466061 1.5772748 1
10.007466 10.950474 -0.77820396 6
4.1841555 6.6076388 -0.13591172 49
6.1421866 6.7172003 -1.1116953 5
4.3155942 6.8180857 -0.70150989 18
4.4625812 4.8793168 -1.2761253 5
4.2739134 6.759944 -1.2626438 6
3.4853983 3.8074276 -1.3727878 18
3.2067506 5.0835643 -1.3774272 6
18.272263 24.762304 7.6527514 41
22.435808 21.185143 2.1499212 6
26.607309 35.954285 4.6975088 3
9.2399921 8.7221718 -0.88387173 4
11.835199 15.973431 -0.69648319 10
5.9937997 5.6500454 -1.1498393 5
6.2621551 8.4501238 -1.0980724 5
4.4388204 4.1755548 -1.2890713 17
4.3241305 5.8360085 -1.2745786 20
3.5630057 3.3412004 -1.3897448 10
3.3267877 4.4924088 -1.384034 4
14.867474 16.16503 5.0543065 4
19.970953 31.618872 9.9974318 13
19.006758 20.672113 4.4321661 29
15.240207 24.033958 5.5199137 1
19.307436 20.99909 2.4926541 45
15.361732 24.160412 3.5060649 7
15.26458 16.596703 0.39298454 19
16.172606 25.387249 1.5757048 13
10.084296 10.961318 -0.78135461 4
4.2087302 6.5979433 -0.13599898 54
6.1644278 6.696795 -1.1116953 5
4.3020597 6.7470183 -0.69563866 12
4.4754119 4.8608813 -1.2751729 5
4.3002815 6.7519836 -1.2638184 6
3.4947309 3.7922978 -1.3714947 18
3.219676 5.0667315 -1.3757428 6
18.272263 24.762304 7.6527514 41
22.435808 21.185143 2.1499212 6
26.607309 35.954285 4.6975088 3
27.285336 36.843693 1.5997928 1
9.2399921 8.7221718 -0.88387173 4
11.835199 15.973431 -0.69648319 10
5.9937997 5.6500454 -1.1498393 5
6.2621551 8.4501238 -1.0980724 5
4.4388204 4.1755548 -1.2890713 17
4.3241305 5.8360085 -1.2745786 20
3.5630057 3.3412004 -1.3897448 10
3.3267877 4.4924088 -1.384034 4
18.855394 20.500345 6.4120798 13
19.970953 31.618872 9.9974318 13
19.006758 20.672113 4.4321661 29
15.240207 24.033958 5.5199137 1
19.307436 20.99909 2.4926541 45
15.361732 24.160412 3.5060649 7
19.334448 21.021103 0.49791712 1
18.430918 28.933456 1.7960392 1
10.084296 10.961318 -0.78135461 4
4.2087302 6.5979433 -0.13599898 54
6.1644278 6.696795 -1.1116953 5
4.3020597 6.7470183 -0.69563866 12
4.4754119 4.8608813 -1.2751729 5
4.3002815 6.7519836 -1.2638184 6
3.4947309 3.7922978 -1.3714947 18
3.219676 5.0667315 -1.3757428 6
21.429758 20.052359 6.2254772 23
18.406343 24.762627 7.6726818 36
22.51326 21.110109 2.150269 6
26.526115 35.584099 4.6611853 6
27.584074 36.976528 1.6097392 16
9.2576408 8.6779299 -0.88265407 4
11.893871 15.936026 -0.69665855 9
6.0062523 5.6223249 -1.148451 5
6.2886386 8.4242277 -1.0975515 5
4.4480047 4.1550317 -1.2875108 16
4.3474193 5.8248267 -1.2754468 20
3.5728869 3.3271065 -1.3890561 10
3.3380997 4.4749336 -1.3822209 5
19.024515 20.539846 6.44521 22
20.776142 32.641071 10.343798 9
18.99659 20.516863 4.4130454 10
21.588861 33.788006 7.7799225 4
19.427999 20.982735 2.4987552 41
15.439282 24.096193 3.5045435 15
19.518122 21.072678 0.50075316 42
15.522212 24.179222 1.5040045 3
10.14795 10.953519 -0.78332371 4
4.2303853 6.5811081 -0.13595535 60
6.182704 6.6697769 -1.1107825 5
4.3134789 6.7130957 -0.69368154 15
4.4973593 4.8506279 -1.2766014 6
4.3144965 6.7223806 -1.2610778 5
3.5079474 3.780076 -1.3714947 19
3.2373424 5.0554614 -1.3757428 6
21.429758 20.052359 6.2254772 23
18.406343 24.762627 7.6726818 36
22.51326 21.110109 2.150269 6
26.526115 35.584099 4.6611853 6
27.584074 36.976528 1.6097392 16
9.2576408 8.6779299 -0.88265407 4
11.893871 15.936026 -0.69665855 9
6.0062523 5.6223249 -1.148451 5
6.2886386 8.4242277 -1.0975515 5
4.4480047 4.1550317 -1.2875108 16
4.3474193 5.8248267 -1.2754468 20
3.5728869 3.3271065 -1.3890561 10
3.3380997 4.4749336 -1.3822209 5
19.024515 20.539846 6.44521 22
20.776142 32.641071 10.343798 9
18.99659 20.516863 4.4130454 10
21.588861 33.788006 7.7799225 4
19.427999 20.982735 2.4987552 41
15.439282 24.096193 3.5045435 15
19.518122 21.072678 0.50075316 42
19.517471 30.404867 1.8916831 1
10.14795 10.953519 -0.78332371 4
4.2303853 6.5811081 -0.13595535 60
6.182704 6.6697769 -1.1107825 5
4.3134789 6.7130957 -0.69368154 15
4.4973593 4.8506279 -1.2766014 6
4.3144965 6.7223806 -1.2610778 5
3.5079474 3.780076 -1.3714947 19
3.2373424 5.0554614 -1.3757428 6
21.50679 19.984089 6.2275543 23
18.53483 24.754541 7.6901965 38
37.561378 50.096455 11.023117 1
22.588634 21.033091 2.1504428 6
26.633743 35.469421 4.6583109 27
9.2805738 8.6387682 -0.88195831 4
11.955432 15.902399 -0.69700927 8
6.0240264 5.5996404 -1.1481038 5
6.3120308 8.3942738 -1.0965096 4
4.4624815 4.1394792 -1.2875108 15
4.3603311 5.7997737 -1.2732762 20
3.5915422 3.3211346 -1.3918107 9
3.3493302 4.4574347 -1.3804077 4
19.355328 20.751207 6.5328083 12
21.614777 33.698677 10.703087 9
19.164083 20.553368 4.435288 7
21.704018 33.708313 7.7789698 6
19.528299 20.943933 2.5022414 37
15.918923 24.655102 3.5939901 7
19.600086 21.013559 0.50097132 52
15.639054 24.175205 1.5071446 30
10.19464 10.927155 -0.78398007 4
4.2560468 6.5704985 -0.13604259 61
6.2042551 6.6463413 -1.1104783 4
4.3477049 6.7147284 -0.69542116 13
4.505887 4.825932 -1.2742207 5
4.3272185 6.6906877 -1.2579457 5
3.521121 3.7678077 -1.3714947 18
3.2496922 5.0359387 -1.3734965 5
21.50679 19.984089 6.2275543 23
18.53483 24.754541 7.6901965 38
37.561378 50.096455 11.023117 1
22.588634 21.033091 2.1504428 6
37.313431 49.693428 6.5278025 3
9.2805738 8.6387682 -0.88195831 4
11.955432 15.902399 -0.69700927 8
6.0240264 5.5996404 -1.1481038 5
6.3120308 8.3942738 -1.0965096 4
4.4624815 4.1394792 -1.2875108 15
4.3603311 5.7997737 -1.2732762 20
3.5915422 3.3211346 -1.3918107 9
3.3493302 4.4574347 -1.3804077 4
19.355328 20.751207 6.5328083 12
23.643238 36.861973 11.708582 1
19.164083 20.553368 4.435288 7
21.704018 33.708313 7.7789698 6
19.528299 20.943933 2.5022414 37
15.918923 24.655102 3.5939901 7
19.600086 21.013559 0.50097132 52
22.458271 34.720142 2.1652691 1
10.19464 10.927155 -0.78398007 4
4.2560468 6.5704985 -0.13604259 61
6.2042551 6.6463413 -1.1104783 4
4.3477049 6.7147284 -0.69542116 13
4.505887 4.825932 -1.2742207 5
4.3272185 6.6906877 -1.2579457 5
3.521121 3.7678077 -1.3714947 18
3.2496922 5.0359387 -1.3734965 5
21.66798 19.986359 6.2530026 27
17.880333 23.698732 7.3821778 32
37.569611 49.726635 10.971941 20
22.676563 20.960316 2.1514866 6
26.727562 35.323978 4.6520391 13
9.3030119 8.5962343 -0.88108844 4
12.021179 15.868433 -0.69744772 9
6.0390487 5.5724888 -1.1470627 4
6.3307462 8.3552275 -1.094426 4
4.477623 4.123096 -1.2875108 15
4.3875027 5.7916045 -1.2750127 20
3.6019187 3.306325 -1.391122 9
3.3656447 4.4451294 -1.3804077 5
19.406231 20.653498 6.524385 21
24.12038 37.304428 11.877242 83
19.222382 20.464993 4.431386 7
21.806044 33.5956 7.7713442 13
19.6271 20.895815 2.505074 10
16.610044 25.520073 3.729073 13
19.695803 20.961617 0.50145125 53
16.452875 25.23036 1.5767515 2
10.226071 10.880622 -0.78332371 4
4.281466 6.5569491 -0.13608623 54
6.2234726 6.618134 -1.1095655 5
4.3654861 6.6883159 -0.69433385 21
4.5235448 4.8093848 -1.2742207 5
4.3517118 6.6747823 -1.2579457 6
3.5315952 3.7513614 -1.3702013 19
3.2681279 5.0239935 -1.3734965 6
21.66798 19.986359 6.2530026 27
17.880333 23.698732 7.3821778 32
37.569611 49.726635 10.971941 20
22.676563 20.960316 2.1514866 6
37.517815 49.586082 6.5317225 18
9.3045111 8.5946102 -0.88108844 4
12.021179 15.868433 -0.69744772 9
6.0390487 5.5724888 -1.1470627 4
6.3307505 8.3552237 -1.094426 4
4.477623 4.123096 -1.2875108 15
4.388514 5.7908392 -1.2750127 20
3.6019187 3.306325 -1.391122 9
3.3664205 4.4445419 -1.3804077 5
19.406231 20.653498 6.524385 21
24.12689 37.300217 11.877242 83
19.222382 20.464993 4.431386 7
21.811905 33.591797 7.7713442 13
19.6271 20.895815 2.505074 10
16.6145 25.517174 3.729073 13
19.695803 20.961617 0.50145125 53
23.052368 35.340481 2.2094932 88
10.226071 10.880622 -0.78332371 4
4.2826104 6.5562019 -0.13608623 54
6.2234726 6.618134 -1.1095655 5
4.366653 6.6875544 -0.69433385 21
4.5243835 4.8085957 -1.2742207 5
4.3528767 6.6740227 -1.2579457 6
3.5322497 3.7507448 -1.3702013 19
3.2681279 5.0239935 -1.3734965 6
21.799057 19.973862 6.2716994 29
17.957354 23.637379 7.3815737 25
37.758156 49.633129 10.978881 62
22.7386 20.878254 2.1507909 6
37.679031 49.457436 6.5311995 28
19.357733 17.78104 0 5
9.3237705 8.5552807 -0.88021868 4
12.079796 15.836429 -0.69779849 8
6.0629716 5.5574484 -1.1481038 4
6.3538985 8.3282518 -1.0936446 4
4.4912715 4.1082249 -1.2875108 15
4.403214 5.7703815 -1.2737104 20
3.6217496 3.3024514 -1.3945655 8
3.3782001 4.4294944 -1.3791989 5
19.504749 20.620888 6.5344925 22
25.047928 38.444267 12.268195 83
19.261295 20.370636 4.4247522 6
22.489962 34.386074 7.9724669 1
17.373856 26.491226 3.879976 6
19.785816 20.917978 0.50197482 49
16.761524 25.508728 1.5978167 6
10.226062 10.808572 -0.78056693 4
4.304328 6.5419641 -0.13608623 65
6.241972 6.5938568 -1.1089571 4
4.349153 6.6126709 -0.68802768 31
4.5352407 4.7882209 -1.2727921 5
4.3600845 6.6368427 -1.253639 8
3.5463302 3.7407627 -1.3708479 19
3.2767687 5.0008969 -1.3701274 5
21.799057 19.973862 6.2716994 29
25.150555 33.107204 10.342175 1
37.758156 49.633129 10.978881 62
22.7386 20.878254 2.1507909 6
37.670395 49.464012 6.5311995 28
19.357733 17.78104 0 5
9.3222771 8.5569077 -0.88021868 4
12.079796 15.836429 -0.69779849 8
6.0620022 5.5585065 -1.1481038 4
6.3538938 8.3282557 -1.0936446 4
4.4905543 4.1090083 -1.2875108 15
4.4022069 5.7711501 -1.2737104 20
3.6211731 3.3030837 -1.3945655 8
3.3774271 4.4300847 -1.3791989 5
19.501148 20.62429 6.5344925 22
25.04122 38.448639 12.268195 83
19.25774 20.373997 4.4247522 6
22.483961 34.389999 7.9724669 1
17.36923 26.494257 3.879976 6
19.782164 20.921431 0.50197482 49
24.180048 36.816357 2.3065763 80
10.224174 10.810357 -0.78056693 4
4.3020487 6.5434623 -0.13608623 65
6.2408214 6.5949464 -1.1089571 4
4.3468437 6.6141882 -0.68802768 31
4.5344048 4.7890124 -1.2727921 5
4.3577676 6.6383638 -1.253639 8
3.5450242 3.7420006 -1.3708479 19
3.2758961 5.0014687 -1.3701274 5
21.908447 19.933849 6.2831254 29
16.403465 21.435919 6.7111807 4
21.363235 27.878017 6.1805263 26
22.837143 20.822277 2.1532264 6
37.936649 49.454529 6.5474014 18
9.3428717 8.5159187 -0.87934893 4
12.139567 15.800112 -0.69806153 9
6.0740433 5.5306492 -1.1467156 4
6.3723235 8.292223 -1.0918214 4
4.5103025 4.0982385 -1.2890713 7
4.4148278 5.7459846 -1.2715397 19
3.6291158 3.2871993 -1.3931881 8
3.3884397 4.4124942 -1.3773857 5
19.609983 20.594904 6.5468464 20
26.168917 39.875397 12.752849 83
19.376415 20.35673 4.4356785 17
23.537992 35.729595 8.3022699 1
18.310776 27.719339 4.0689092 9
19.927475 20.928278 0.50380731 34
17.855793 26.979183 1.6937224 18
10.232574 10.743871 -0.77833521 4
4.3207254 6.5221519 -0.13595535 69
6.2552423 6.5641408 -1.1074358 4
4.3575401 6.5802789 -0.68607062 32
4.5578699 4.7802587 -1.2746967 5
4.3564153 6.5860286 -1.2465916 22
3.5513949 3.7226164 -1.3682615 18
3.2893133 4.9839001 -1.3684428 6
21.908447 19.933849 6.2831254 29
25.131824 32.843887 10.287216 4
38.00156 49.592884 10.999264 1
22.837143 20.822277 2.1532264 6
37.945278 49.447906 6.5474014 18
9.3428717 8.5159187 -0.87934893 4
12.139567 15.800112 -0.69806153 9
6.0750079 5.5295892 -1.1467156 4
6.3723235 8.292223 -1.0918214 4
4.5110178 4.0974512 -1.2890713 7
4.4148278 5.7459846 -1.2715397 19
3.6296892 3.2865658 -1.3931881 8
3.3884397 4.4124942 -1.3773857 5
19.613577 20.591482 6.5468464 20
26.168917 39.875397 12.752849 83
19.379969 20.353348 4.4356785 17
23.537992 35.729595 8.3022699 1
18.310776 27.719339 4.0689092 9
19.931126 20.924801 0.50380731 34
24.811234 37.491699 2.3543329 44
10.234449 10.742085 -0.77833521 4
4.3218594 6.5214014 -0.13595535 69
6.2563882 6.5630488 -1.1074358 4
4.3586888 6.5795188 -0.68607062 32
4.5578699 4.7802587 -1.2746967 5
4.3575644 6.585268 -1.2465916 22
3.5520444 3.7219965 -1.3682615 18
3.2901831 4.983326 -1.3684428 6
21.928896 19.812996 6.2691031 31
16.442652 21.332413 6.6966858 14
21.416794 27.746752 6.1679497 39
22.885651 20.720678 2.1509647 1
38.029472 49.201054 6.5322452 16
9.3577442 8.4698696 -0.87795722 4
12.190061 15.751713 -0.69779849 9
6.0869222 5.5017123 -1.1453273 4
6.404274 8.2738638 -1.0923424 5
4.5198426 4.0767703 -1.2875108 4
4.4348578 5.7305384 -1.2715397 20
3.6411395 3.273876 -1.3931881 7
3.4067888 4.4044781 -1.3785945 5
19.708944 20.547504 6.5547075 4
27.224293 41.169827 13.197437 62
20.486639 21.365639 4.6721539 1
24.700701 37.211506 8.6668644 2
19.118111 28.723312 4.2262015 13
20.002316 20.853296 0.50376368 17
19.068819 28.595133 1.799441 86
10.278797 10.7135 -0.77886033 4
4.351531 6.5166731 -0.1361735 62
6.2844162 6.5465403 -1.1083486 4
4.3816295 6.5642643 -0.68607062 34
4.5677276 4.7572403 -1.2727921 5
4.3832612 6.5741272 -1.2473747 17
3.5700366 3.7147965 -1.3702013 19
3.3075581 4.9718108 -1.3684428 5
21.928896 19.812996 6.2691031 31
18.968985 24.610558 7.7270379 1
38.099228 49.362473 10.97758 3
22.885651 20.720678 2.1509647 1
39.385704 50.955814 6.7653432 1
9.3592234 8.4682369 -0.87795722 4
12.190061 15.751713 -0.69779849 9
6.0869222 5.5017123 -1.1453273 4
6.4042783 8.273859 -1.0923424 5
4.5198426 4.0767703 -1.2875108 4
4.4358582 5.7297645 -1.2715397 20
3.6411395 3.273876 -1.3931881 7
3.4075572 4.4038835 -1.3785945 5
22.037931 22.975304 7.3301768 16
27.231478 41.165077 13.197437 62
20.486639 21.365639 4.6721539 1
24.707191 37.207195 8.6668644 2
19.123125 28.719975 4.2262015 13
21.860775 22.790604 0.55062342 1
25.790688 38.663342 2.4338834 1
10.278797 10.7135 -0.77886033 4
4.3526688 6.515914 -0.1361735 62
6.2844162 6.5465403 -1.1083486 4
4.3827744 6.563499 -0.68607062 34
4.5685573 4.756443 -1.2727921 5
4.3844094 6.5733624 -1.2473747 17
3.5706849 3.7141736 -1.3702013 19
3.3075581 4.9718108 -1.3684428 5
22.168875 19.882681 6.3168831 31
16.513287 21.262424 6.6936655 27
20.182259 25.949932 5.7845664 80
38.686169 49.673367 6.6137772 41
9.37535 8.4205494 -0.87656564 4
12.258464 15.720719 -0.6984123 9
6.1052017 5.4777131 -1.1449802 4
6.4238596 8.2366037 -1.0905192 4
4.5438685 4.068326 -1.2901117 5
4.4507742 5.7057014 -1.2698033 19
3.6477313 3.255712 -1.391122 7
3.4162216 4.3817968 -1.3755727 5
19.824751 20.517174 6.5681844 9
28.360096 42.531883 13.669167 25
20.667749 21.396967 4.6955676 25
25.834303 38.597141 9.0128717 2
18.440199 27.475159 4.0527844 6
21.90942 22.674376 0.5497508 6
10.295438 10.65242 -0.77715373 4
4.3807063 6.5061393 -0.13630439 67
6.3014669 6.5163283 -1.1071316 4
4.3970761 6.5329227 -0.68454844 28
4.5859609 4.7396665 -1.2727921 5
4.4153543 6.5674982 -1.2493322 9
3.5825937 3.6993272 -1.3695548 19
3.3230481 4.955606 -1.3673198 5
22.168875 19.882681 6.3168831 31
16.513287 21.262424 6.6936655 27
21.404991 27.522301 6.1354227 1
38.686169 49.673367 6.6137772 41
9.37535 8.4205494 -0.87656564 4
12.258464 15.720719 -0.6984123 9
6.1052017 5.4777131 -1.1449802 4
6.4238596 8.2366037 -1.0905192 4
4.5438685 4.068326 -1.2901117 5
4.4507742 5.7057014 -1.2698033 19
3.6477313 3.255712 -1.391122 7
3.4162216 4.3817968 -1.3755727 5
22.010263 22.778757 7.2931156 1
28.360096 42.531883 13.669167 25
20.667749 21.396967 4.6955676 25
25.834303 38.597141 9.0128717 2
18.440199 27.475159 4.0527844 6
21.90942 22.674376 0.5497508 6
27.228935 40.49754 2.5556955 89
10.295438 10.65242 -0.77715373 4
4.3807063 6.5061393 -0.13630439 67
6.3014669 6.5163283 -1.1071316 4
4.3970761 6.5329227 -0.68454844 28
4.5859609 4.7396665 -1.2727921 5
4.4153543 6.5674982 -1.2493322 9
3.5825937 3.6993272 -1.3695548 19
3.3230481 4.955606 -1.3673198 5
22.37878 19.930387 6.356873 20
16.576942 21.191273 6.6894379 31
20.02829 25.567259 5.7147431 59
39.120186 49.870594 6.6582017 39
9.3991013 8.3827953 -0.8760438 4
12.304006 15.666043 -0.69788611 9
6.1242857 5.4563684 -1.1449802 4
6.4479647 8.2082644 -1.0897379 4
4.5525565 4.0475693 -1.2885511 4
4.4691429 5.6881943 -1.2693691 19
3.6572738 3.2413666 -1.3904333 7
3.4344912 4.373662 -1.3767813 5
19.987995 20.542124 6.5985069 9
28.981054 43.136295 13.895985 4
20.731983 21.314074 4.6932263 6
27.025305 40.07354 9.3798494 2
18.633276 27.554527 4.0740814 46
24.746292 25.431747 0.61877501 6
16.104033 23.768534 1.5028269 3
10.320369 10.603895 -0.77623481 4
4.4089985 6.4990854 -0.13647892 58
6.3172488 6.4871826 -1.1059146 5
4.4338193 6.5381551 -0.68672299 31
4.5939112 4.7148428 -1.2704114 5
4.4410195 6.5561361 -1.2501152 7
3.590425 3.6816142 -1.3676149 18
3.338964 4.941957 -1.3667583 5
22.37878 19.930387 6.356873 20
16.576942 21.191273 6.6894379 31
20.02829 25.567259 5.7147431 59
39.120186 49.870594 6.6582017 39
9.3976374 8.3844357 -0.8760438 4
12.304006 15.666043 -0.69788611 9
6.1242857 5.4563684 -1.1449802 4
6.4479599 8.2082682 -1.0897379 4
4.5525565 4.0475693 -1.2885511 4
4.4681506 5.6889739 -1.2693691 19
3.6572738 3.2413666 -1.3904333 7
3.4337277 4.3742614 -1.3767813 5
22.257843 22.87463 7.3487072 1
28.973524 43.141354 13.895985 4
30.07823 30.921679 6.8113637 1
27.018309 40.078255 9.3798494 2
18.628468 27.557779 4.0740814 46
24.746292 25.431747 0.61877501 6
30.294001 44.73597 2.829674 1
10.320369 10.603895 -0.77623481 4
4.4078636 6.4998546 -0.13647892 58
6.3172488 6.4871826 -1.1059146 5
4.4326787 6.538929 -0.68672299 31
4.5930886 4.7156444 -1.2704114 5
4.4398746 6.5569105 -1.2501152 7
3.5897825 3.6822407 -1.3676149 18
3.338964 4.941957 -1.3667583 5
22.543669 19.943554 6.3849182 1
16.645624 21.134283 6.6888342 30
20.073324 25.450436 5.7034664 57
68.462555 60.682705 6.3787894 9
39.679836 50.240101 6.7251 31
9.4160538 8.3449564 -0.87517393 4
12.360538 15.631036 -0.69814914 9
6.1330714 5.4278297 -1.143245 4
6.4643502 8.1731882 -1.0879147 5
4.5677876 4.0340681 -1.2890713 4
4.4885178 5.6760573 -1.2698033 19
3.6680019 3.2292211 -1.3904333 6
3.4422004 4.3552356 -1.3743639 5
19.870184 20.286043 6.5373006 10
29.669769 43.863239 14.160282 1
30.061396 30.700031 6.7844381 16
28.085604 41.365116 9.70298 3
18.656918 27.403542 4.0603905 38
10.351981 10.566048 -0.77597225 4
4.4392548 6.4996572 -0.13678433 36
6.3387265 6.466198 -1.1059146 4
4.4613533 6.534482 -0.68781024 29
4.6087012 4.7003875 -1.2704114 6
4.4560342 6.5339894 -1.2485492 5
3.6053574 3.6737623 -1.3689082 18
3.3539648 4.9288416 -1.3661968 5
22.543669 19.943554 6.3849182 1
16.645624 21.134283 6.6888342 30
20.073324 25.450436 5.7034664 57
68.462555 60.682705 6.3787894 9
39.671066 50.247028 6.7251 31
9.4160538 8.3449564 -0.87517393 4
12.360538 15.631036 -0.69814914 9
6.1321249 5.4289007 -1.143245 4
6.4643502 8.1731882 -1.0879147 5
4.5670834 4.0348649 -1.2890713 4
4.4885178 5.6760573 -1.2698033 19
3.6674383 3.229861 -1.3904333 6
3.4422004 4.3552356 -1.3743639 5
19.866646 20.289511 6.5373006 10
29.669769 43.863239 14.160282 1
30.056034 30.705276 6.7844381 16
28.085604 41.365116 9.70298 3
18.656918 27.403542 4.0603905 38
30.416868 44.598145 2.8273191 20
10.350137 10.567854 -0.77597225 4
4.4381242 6.5004277 -0.13678433 36
6.3375974 6.4673047 -1.1059146 4
4.4602127 6.5352602 -0.68781024 29
4.6087012 4.7003875 -1.2704114 6
4.4548941 6.5347667 -1.2485492 5
3.6047161 3.6743915 -1.3689082 18
3.3531044 4.9294271 -1.3661968 5
16.658995 21.000021 6.6646762 20
20.263109 25.507454 5.7320905 55
68.625282 60.400517 6.3742666 1
40.081425 50.404045 6.7648206 41
9.4413795 8.3087435 -0.87482601 4
12.41658 15.589748 -0.69823688 9
6.1473174 5.4041948 -1.1425508 4
6.4881935 8.1447372 -1.0871333 4
4.5701041 4.0092306 -1.2859501 4
4.5052371 5.6565022 -1.2689351 19
3.6750698 3.2138793 -1.3890561 6
3.457382 4.3431931 -1.3743639 5
19.901428 20.183613 6.5255084 7
30.07428 44.128624 14.27983 1
30.14743 30.584345 6.7809253 13
29.503056 43.128429 10.14097 1
18.870344 27.510155 4.085947 26
18.931824 27.548277 1.7499835 1
10.364172 10.508556 -0.77426565 4
4.4975896 6.5384626 -0.13791876 37
6.3479309 6.4327807 -1.1037849 5
4.4815879 6.5175982 -0.6875928 28
4.6233549 4.6825252 -1.2699351 5
4.493042 6.5415735 -1.2528559 4
3.6107295 3.6549165 -1.3663216 18
3.3675399 4.9136715 -1.3650737 4
16.658995 21.000021 6.6646762 20
20.263109 25.507454 5.7320905 55
68.625282 60.400517 6.3742666 1
40.090221 50.397045 6.7648206 41
9.4413795 8.3087435 -0.87482601 4
12.41658 15.589748 -0.69823688 9
6.1482601 5.4031224 -1.1425508 4
6.4881935 8.1447372 -1.0871333 4
4.5708036 4.0084329 -1.2859501 4
4.5052371 5.6565022 -1.2689351 19
3.6756306 3.2132375 -1.3890561 6
3.457382 4.3431931 -1.3743639 5
22.645702 22.95846 7.4250751 1
30.07428 44.128624 14.27983 1
30.152767 30.579082 6.7809253 13
29.503056 43.128429 10.14097 1
18.870344 27.510155 4.085947 26
18.931824 27.548277 1.7499835 1
10.366004 10.506746 -0.77426565 4
4.4987264 6.5376811 -0.13791876 37
6.3490534 6.431673 -1.1037849 5
4.4827256 6.5168161 -0.6875928 28
4.6233549 4.6825252 -1.2699351 5
4.4941835 6.5407896 -1.2528559 4
3.611367 3.6542861 -1.3663216 18
3.3683975 4.9130836 -1.3650737 4
16.726765 20.927454 6.6610522 19
61.234787 53.461704 11.419499 3
20.508762 25.623323 5.7750258 55
64.556404 56.401077 5.9769511 1
40.193821 50.148888 6.7512321 24
9.4642553 8.2675247 -0.87413025 4
12.481455 15.553879 -0.69867533 9
6.1736221 5.3854318 -1.1435921 4
6.5086665 8.1092653 -1.0855706 4
4.5854645 3.991653 -1.2859501 4
4.5259385 5.6399517 -1.2689351 17
3.6891999 3.2013178 -1.3897448 6
3.4732776 4.330493 -1.3743639 5
22.453232 22.597097 7.3346691 1
30.233315 30.436827 6.7739015 13
18.938595 27.393854 4.078949 39
10.399163 10.46337 -0.77387178 4
4.521234 6.519094 -0.13787511 40
6.3725843 6.4083595 -1.1037849 5
6.8317804 9.8583574 -1.044219 7
4.6387553 4.6638088 -1.269459 5
4.4984622 6.4958425 -1.2473747 4
3.626441 3.6427367 -1.3669683 18
3.3863823 4.9007049 -1.3650737 4
16.726765 20.927454 6.6610522 19
61.234787 53.461704 11.419499 3
20.508762 25.623323 5.7750258 55
64.556404 56.401077 5.9769511 1
40.193821 50.148888 6.7512321 24
9.4656982 8.265872 -0.87413025 4
12.481455 15.553879 -0.69867533 9
6.1736221 5.3854318 -1.1435921 4
6.5086708 8.1092615 -1.0855706 4
4.5854645 3.991653 -1.2859501 4
4.5269232 5.6391616 -1.2689351 17
3.6891999 3.2013178 -1.3897448 6
3.4740331 4.329886 -1.3743639 5
22.453232 22.597097 7.3346691 1
30.233315 30.436827 6.7739015 13
18.943377 27.390549 4.078949 39
10.399163 10.46337 -0.77387178 4
4.5223722 6.5183048 -0.13787511 40
6.3725843 6.4083595 -1.1037849 5
6.8335004 9.8571653 -1.044219 7
4.6395688 4.6629987 -1.269459 5
4.4995961 6.4950576 -1.2473747 4
3.6270766 3.6421037 -1.3669683 18
3.3863823 4.9007049 -1.3650737 4
16.776897 20.84059 6.6519928 18
61.407925 53.236279 11.417064 13
20.636709 25.599503 5.7858682 50
40.520107 50.19595 6.7765803 30
9.4831848 8.2229815 -0.87308651 4
12.518398 15.488839 -0.69771081 9
6.1886392 5.3606086 -1.142898 4
6.5353751 8.0845594 -1.0853101 4
4.5919662 3.9692311 -1.2838693 4
4.54039 5.6156654 -1.2671984 17
3.6948855 3.1837187 -1.3876787 6
3.4936976 4.3233948 -1.376177 4
20.002317 19.990692 6.5103469 24
30.356842 30.348568 6.7778044 1
19.041712 27.328331 4.0795574 43
19.120396 27.390335 1.748806 1
10.417962 10.409364 -0.77255905 4
4.5522523 6.5127273 -0.13809328 38
6.3861341 6.3773108 -1.1022638 5
6.8607407 9.82304 -1.0431317 8
4.6523428 4.6433086 -1.2685066 5
4.5293007 6.4894395 -1.2493322 4
3.6329255 3.6226017 -1.3643818 17
3.399297 4.882853 -1.363389 4
16.776897 20.84059 6.6519928 18
61.407925 53.236279 11.417064 13
20.636709 25.599503 5.7858682 50
40.511341 50.203018 6.7765803 30
9.4817495 8.2246361 -0.87308651 4
12.518398 15.488839 -0.69771081 9
6.1877031 5.3616881 -1.142898 4
6.5353708 8.0845633 -1.0853101 4
4.5912738 3.9700329 -1.2838693 4
4.5394096 5.6164579 -1.2671984 17
3.6943295 3.1843634 -1.3876787 6
3.4929433 4.3240051 -1.376177 4
21.351305 21.346188 6.9511461 1
35.258083 35.260406 7.8743339 1
19.03694 27.331656 4.0795574 43
19.115614 27.393671 1.748806 1
10.416144 10.411182 -0.77255905 4
4.549983 6.5143113 -0.13809328 38
6.3850212 6.3784256 -1.1022638 5
6.8573112 9.8254328 -1.0431317 8
4.6515322 4.6441207 -1.2685066 5
4.5270352 6.4910197 -1.2493322 4
3.6316607 3.6238701 -1.3643818 17
3.3984449 4.8834462 -1.363389 4
16.690123 20.592594 6.5903888 30
61.437801 52.906349 11.389925 25
20.882835 25.72975 5.8309717 41
63.542603 54.757298 5.8483977 1
40.676029 50.066463 6.776319 22
9.5033016 8.1882658 -0.87256461 4
12.574421 15.453054 -0.69797385 10
6.2035713 5.3395252 -1.1425508 5
6.5495911 8.0474167 -1.0832266 4
4.6062689 3.9563775 -1.2843894 4
4.5642238 5.609014 -1.2689351 17
3.7085238 3.1752183 -1.3890561 6
3.5026736 4.3067503 -1.3743639 5
20.047735 19.910589 6.5047317 20
17.049267 24.458714 7.9683495 4
19.155962 27.309006 4.0856423 37
20.638666 29.368866 1.8793842 3
10.445296 10.371306 -0.77216524 4
4.5801816 6.5114589 -0.13835506 23
6.4061375 6.3572168 -1.1022638 4
6.8826985 9.792449 -1.0420445 9
4.6686502 4.6303983 -1.2689828 5
4.5414453 6.4658656 -1.2473747 4
3.6470888 3.6152058 -1.365675 17
3.4132233 4.8701534 -1.3628275 4
16.690123 20.592594 6.5903888 30
61.437801 52.906349 11.389925 25
20.882835 25.72975 5.8309717 41
63.542603 54.757298 5.8483977 1
40.676029 50.066463 6.776319 22
9.5033016 8.1882658 -0.87256461 4
12.574421 15.453054 -0.69797385 10
6.2035713 5.3395252 -1.1425508 5
6.5495911 8.0474167 -1.0832266 4
4.6062689 3.9563775 -1.2843894 4
4.5642238 5.609014 -1.2689351 17
3.7085238 3.1752183 -1.3890561 6
3.5026736 4.3067503 -1.3743639 5
20.047735 19.910589 6.5047317 20
17.049267 24.458714 7.9683495 4
35.457153 35.225082 7.8926744 4
19.155962 27.309006 4.0856423 37
36.767288 52.326092 3.3497627 6
10.445296 10.371306 -0.77216524 4
4.5801816 6.5114589 -0.13835506 23
6.4061375 6.3572168 -1.1022638 4
6.8826985 9.792449 -1.0420445 9
4.6686502 4.6303983 -1.2689828 5
4.5414453 6.4658656 -1.2473747 4
3.6470888 3.6152058 -1.365675 17
3.4132233 4.8701534 -1.3628275 4
16.6668 20.417683 6.5529437 29
61.620224 52.689964 11.389578 24
21.159496 25.885462 5.8830147 35
61.582542 52.694946 5.6509581 3
40.721443 49.766388 6.7548904 25
9.5280361 8.1518021 -0.8722167 4
12.618787 15.397473 -0.69744772 10
6.2165232 5.3130155 -1.1415097 5
6.5697637 8.0148897 -1.0819243 5
4.6163282 3.9371035 -1.283349 4
4.575974 5.5835247 -1.2667644 15
3.714087 3.1575885 -1.38699 5
3.5146124 4.2907434 -1.3731551 5
20.257614 19.97904 6.5502152 25
17.101238 24.351616 7.9528408 45
19.324194 27.345339 4.1011591 26
22.139452 21.834761 0.54215896 4
36.893467 52.117962 3.3446598 23
10.470768 10.324267 -0.77137756 4
12.812408 18.094454 -0.38639939 1
6.4247541 6.3313336 -1.1016552 5
6.9168386 9.768364 -1.0420445 7
4.6777887 4.6071863 -1.267078 6
4.5582871 6.4419074 -1.2458086 4
3.6614079 3.6041467 -1.3663216 18
3.4344134 4.8641829 -1.3645121 5
16.6668 20.417683 6.5529437 29
61.620224 52.689964 11.389578 24
21.159496 25.885462 5.8830147 35
61.582542 52.694946 5.6509581 3
40.730129 49.759277 6.7548904 25
9.5280361 8.1518021 -0.8722167 4
12.618787 15.397473 -0.69744772 10
6.2174506 5.3119311 -1.1415097 5
6.5697637 8.0148897 -1.0819243 5
4.6170149 3.9362979 -1.283349 4
4.575974 5.5835247 -1.2667644 15
3.714638 3.15694 -1.38699 5
3.5146124 4.2907434 -1.3731551 5
20.261103 19.975506 6.5502152 25
17.101238 24.351616 7.9528408 45
19.324194 27.345339 4.1011591 26
22.143265 21.830894 0.54215896 4
36.893467 52.117962 3.3446598 23
10.47257 10.322438 -0.77137756 4
12.815562 18.092222 -0.38639939 1
6.4258595 6.3302121 -1.1016552 5
6.9185433 9.7671576 -1.0420445 7
4.6777887 4.6071863 -1.267078 6
4.559412 6.4411116 -1.2458086 4
3.6620369 3.6035078 -1.3663216 18
3.4352624 4.8635836 -1.3645121 5
16.784666 20.408926 6.5698547 23
61.403324 52.116146 11.314076 24
21.434214 26.02631 5.9328895 36
61.480618 52.218647 5.6239944 6
40.79517 49.467712 6.7355528 43
9.552145 8.1119843 -0.87169486 4
12.654458 15.326071 -0.69630778 10
6.2368779 5.2891068 -1.1415097 5
6.586431 7.9754162 -1.0798405 5
4.6295443 3.9177709 -1.2828288 4
4.5964084 5.5667152 -1.2667644 15
3.7280221 3.1448522 -1.3876787 5
3.5287716 4.2759604 -1.3725507 5
20.419497 19.9846 6.5777307 5
17.236406 24.35383 7.974165 45
19.312035 27.116657 4.0774283 3
21.990883 21.522318 0.53648692 6
37.056694 51.943771 3.3421738 27
10.492487 10.266528 -0.77006483 4
12.826615 17.96781 -0.3847414 1
6.4507909 6.3083515 -1.1019595 4
6.9485102 9.7336235 -1.0411747 8
4.6963987 4.5917253 -1.2675543 6
4.5786905 6.4183245 -1.244634 5
3.6700356 3.5850008 -1.3643818 18
3.4488316 4.8450027 -1.3628275 5
16.784666 20.408926 6.5698547 23
61.403324 52.116146 11.314076 24
21.434214 26.02631 5.9328895 36
61.480618 52.218647 5.6239944 6
40.79517 49.467712 6.7355528 43
9.5535612 8.1103172 -0.87169486 4
12.654458 15.326071 -0.69630778 10
6.2368779 5.2891068 -1.1415097 5
6.5864358 7.9754119 -1.0798405 5
4.6295443 3.9177709 -1.2828288 4
4.5973797 5.5659127 -1.2667644 15
3.7280221 3.1448522 -1.3876787 5
3.5295179 4.2753448 -1.3725507 5
22.26162 21.787281 7.1718259 18
17.240656 24.350822 7.974165 45
25.824999 36.25098 5.452898 1
21.990883 21.522318 0.53648692 6
37.065758 51.937302 3.3421738 27
10.492487 10.266528 -0.77006483 4
12.82975 17.96557 -0.3847414 1
6.4507909 6.3083515 -1.1019595 4
6.9502091 9.7324095 -1.0411747 8
4.6972003 4.5909057 -1.2675543 6
4.5798106 6.4175258 -1.244634 5
3.6706612 3.5843601 -1.3643818 18
3.4488316 4.8450027 -1.3628275 5
16.784628 20.264263 6.5420728 19
61.228962 51.601578 11.248665 18
21.45735 25.869841 5.9142404 31
61.971382 52.264175 5.6521754 6
40.857994 49.193031 6.7175217 18
9.5684605 8.0656719 -0.87047714 4
12.674336 15.241461 -0.69446641 12
6.2477241 5.2609291 -1.1401213 4
6.6126466 7.9504619 -1.0795802 4
4.6469378 3.9047303 -1.2838693 4
4.6183543 5.5517244 -1.2671984 12
3.7316022 3.1256537 -1.3849239 5
3.5397699 4.257401 -1.3707377 5
22.337536 21.709442 7.1718259 28
16.293623 22.843246 7.498559 39
19.453241 27.104156 4.0862508 3
21.832836 21.21896 0.53081489 16
37.257027 51.821796 3.3430898 9
10.52826 10.22984 -0.77006483 4
12.92449 17.965324 -0.3857013 5
6.46387 6.277154 -1.1004382 5
6.9710565 9.6898909 -1.0392175 7
4.7026281 4.5642285 -1.2646973 5
4.5949836 6.3914719 -1.2426764 5
3.6796825 3.5681641 -1.3630885 18
3.4657228 4.8329344 -1.3628275 5
16.784628 20.264263 6.5420728 19
61.228962 51.601578 11.248665 18
21.45735 25.869841 5.9142404 31
61.971382 52.264175 5.6521754 6
40.857994 49.193031 6.7175217 18
9.5670519 8.0673418 -0.87047714 4
12.674336 15.241461 -0.69446641 12
6.2477241 5.2609291 -1.1401213 4
6.6126418 7.9504657 -1.0795802 4
4.6469378 3.9047303 -1.2838693 4
4.6173854 5.5525308 -1.2671984 12
3.7316022 3.1256537 -1.3849239 5
3.5390267 4.258019 -1.3707377 5
22.337536 21.709442 7.1718259 28
17.342339 24.323017 7.9838581 1
25.741148 35.880829 5.4100003 9
21.832836 21.21896 0.53081489 16
37.247982 51.828297 3.3430898 9
10.52826 10.22984 -0.77006483 4
12.921353 17.967579 -0.3857013 5
6.46387 6.277154 -1.1004382 5
6.9693646 9.6911068 -1.0392175 7
4.7018309 4.5650492 -1.2646973 5
4.5938678 6.3922734 -1.2426764 5
3.6790595 3.5688062 -1.3630885 18
3.4657228 4.8329344 -1.3628275 5
16.864161 20.223398 6.5469041 21
61.289642 51.306087 11.228485 35
21.639277 25.91383 5.9406953 32
59.848206 50.135098 5.4432545 6
9.5918398 8.0339708 -0.87030321 4
12.719997 15.193599 -0.69420338 10
6.2651358 5.2401819 -1.1401213 4
6.63099 7.9189596 -1.0782778 4
4.6598606 3.8892992 -1.2838693 4
4.6357727 5.5371876 -1.2671984 10
3.7419469 3.1132617 -1.3849239 4
3.5593514 4.2537036 -1.3731551 5
22.53735 21.75876 7.2128177 30
16.182234 22.536894 7.4145522 38
25.650768 35.505604 5.3661895 27
21.885098 21.12908 0.53037858 16
26.02284 35.954632 2.3242397 13
10.547754 10.181002 -0.7690146 4
12.977934 17.920582 -0.38561401 5
6.4828639 6.2539625 -1.1001341 5
6.9912429 9.6538191 -1.0376953 6
4.7204771 4.5528393 -1.2656497 6
4.6092544 6.369 -1.2411103 5
3.6908739 3.5565865 -1.3630885 18
3.4760318 4.8135114 -1.3605815 5
16.864161 20.223398 6.5469041 21
61.289642 51.306087 11.228485 35
21.639277 25.91383 5.9406953 32
59.848206 50.135098 5.4432545 6
40.60574 48.577969 6.6508846 18
9.5918398 8.0339708 -0.87030321 4
12.719997 15.193599 -0.69420338 10
6.2642212 5.2412753 -1.1401213 4
6.63099 7.9189596 -1.0782778 4
4.6591821 3.8901126 -1.2838693 4
4.6357727 5.5371876 -1.2671984 10
3.7414033 3.1139147 -1.3849239 4
3.5593514 4.2537036 -1.3731551 5
22.533552 21.762693 7.2128177 30
16.182234 22.536894 7.4145522 38
25.650768 35.505604 5.3661895 27
21.881409 21.1329 0.53037858 16
37.358177 51.619545 3.3375947 16
10.545977 10.182842 -0.7690146 4
12.974811 17.922844 -0.38561401 5
6.4817724 6.2550936 -1.1001341 5
6.9895582 9.6550379 -1.0376953 6
4.7204771 4.5528393 -1.2656497 6
4.6081424 6.3698049 -1.2411103 5
3.690253 3.5572307 -1.3630885 18
3.4751914 4.8141179 -1.3605815 5
16.976774 20.214571 6.563211 24
61.687309 51.273808 11.268497 35
17.812523 21.179857 4.8686118 25
59.925053 49.844551 5.4343824 1
40.323532 47.899536 6.5771918 77
9.6083174 7.9908767 -0.86925942 4
12.764904 15.139553 -0.69376493 10
6.276763 5.2146339 -1.1390802 5
6.6505795 7.8862596 -1.0769756 5
4.6764994 3.8769436 -1.2849096 4
4.6550732 5.5209723 -1.2671984 10
3.7485425 3.0977774 -1.3835467 5
3.574178 4.2412529 -1.3731551 5
20.662947 19.817341 6.591207 10
16.256557 22.474398 7.4126134 34
25.806669 35.459991 5.3728828 28
21.994732 21.094452 0.53133851 9
26.190834 35.922077 2.3280339 4
10.568841 10.133874 -0.76809567 4
12.99901 17.824924 -0.38447958 6
6.5017753 6.2307134 -1.0998298 4
7.0114846 9.61448 -1.0359558 6
4.7257037 4.5261502 -1.2627926 6
4.6303487 6.3536801 -1.2411103 5
3.7026477 3.5443275 -1.3630885 18
3.4919748 4.8019576 -1.3605815 5
16.976774 20.214571 6.563211 24
61.687309 51.273808 11.268497 35
17.812523 21.179857 4.8686118 25
59.925053 49.844551 5.4343824 1
40.33189 47.892498 6.5771918 77
9.6083174 7.9908767 -0.86925942 4
12.764904 15.139553 -0.69376493 10
6.2776728 5.2135386 -1.1390802 5
6.6505795 7.8862596 -1.0769756 5
4.677176 3.8761275 -1.2849096 4
4.6550732 5.5209723 -1.2671984 10
3.7490828 3.0971234 -1.3835467 5
3.574178 4.2412529 -1.3731551 5
22.796055 21.855284 7.2712159 1
16.256557 22.474398 7.4126134 34
25.806669 35.459991 5.3728828 28
21.998413 21.090612 0.53133851 9
37.529316 51.476719 3.3368096 3
10.57061 10.132029 -0.76809567 4
13.002116 17.822659 -0.38447958 6
6.5028629 6.229578 -1.0998298 4
7.0131626 9.6132555 -1.0359558 6
4.7257037 4.5261502 -1.2627926 6
4.6314583 6.3528724 -1.2411103 5
3.7032661 3.5436811 -1.3630885 18
3.4928129 4.8013482 -1.3605815 5
17.183516 20.316345 6.6157556 24
62.219166 51.34967 11.332865 46
17.922941 21.160765 4.8785868 35
57.821842 47.754852 5.2284188 6
36.430286 42.953972 5.91605 18
9.6265335 7.9493508 -0.86838967 4
12.801503 15.075857 -0.69288808 9
6.2958331 5.1915932 -1.1390802 4
6.6684122 7.8516245 -1.0754129 4
4.6831207 3.8535678 -1.2828288 4
4.6695375 5.4990587 -1.2658962 9
3.759871 3.0840173 -1.3835467 5
3.5811157 4.2195005 -1.3701333 5
21.18185 20.166437 6.7332735 12
16.339176 22.423372 7.4145522 28
25.993368 35.455757 5.3859653 29
22.296394 21.227406 0.53674871 6
37.704338 51.339367 3.3364172 30
10.589636 10.07958 -0.76691419 4
13.040573 17.744934 -0.38378152 5
6.5209732 6.2034225 -1.0992213 5
7.0393062 9.5786781 -1.0348685 6
4.7308016 4.4994822 -1.2599356 6
4.6536055 6.3366666 -1.2411103 5
3.7103598 3.5257437 -1.3611486 17
3.5052357 4.7832279 -1.3588969 5
17.183516 20.316345 6.6157556 24
62.219166 51.34967 11.332865 46
17.922941 21.160765 4.8785868 35
57.821842 47.754852 5.2284188 6
40.476307 47.72488 6.5735335 1
9.6265335 7.9493508 -0.86838967 4
12.801503 15.075857 -0.69288808 9
6.2958331 5.1915932 -1.1390802 4
6.6684122 7.8516245 -1.0754129 4
4.6831207 3.8535678 -1.2828288 4
4.6695375 5.4990587 -1.2658962 9
3.759871 3.0840173 -1.3835467 5
3.5811157 4.2195005 -1.3701333 5
22.713406 21.624407 7.2206788 1
16.339176 22.423372 7.4145522 28
25.993368 35.455757 5.3859653 29
22.296394 21.227406 0.53674871 6
37.704338 51.339367 3.3364172 30
10.589636 10.07958 -0.76691419 4
13.040573 17.744934 -0.38378152 5
6.5209732 6.2034225 -1.0992213 5
7.0393062 9.5786781 -1.0348685 6
4.7308016 4.4994822 -1.2599356 6
4.6536055 6.3366666 -1.2411103 5
3.7103598 3.5257437 -1.3611486 17
3.5052357 4.7832279 -1.3588969 5
17.314501 20.319706 6.6374974 30
62.029648 50.812248 11.264322 6
18.075487 21.182966 4.8989706 54
55.892155 45.817776 5.0386329 1
36.547104 42.772907 5.9095168 27
9.6421003 7.9029531 -0.86717194 4
12.843681 15.013647 -0.69218659 9
6.3090696 5.1637816 -1.138039 5
6.690681 7.8195724 -1.0743711 4
4.7010036 3.8394685 -1.2838693 4
4.6944609 5.4875202 -1.2671984 9
3.7786095 3.0762789 -1.3863013 4
3.5965569 4.206347 -1.3701333 5
21.416748 20.240927 6.7843723 29
16.405531 22.341917 7.4074435 19
26.158529 35.408154 5.3932667 16
22.321362 21.095757 0.53548342 3
37.976902 51.315224 3.3438749 23
10.611991 10.026985 -0.76586401 4
13.117422 17.713091 -0.38413057 5
6.5472741 6.1828856 -1.0998298 5
7.0625148 9.5367975 -1.0331289 6
4.747261 4.4821124 -1.2599356 6
4.6753316 6.3175817 -1.2407188 5
3.7179861 3.5071521 -1.3592088 17
3.5169611 4.7625055 -1.3566508 5
17.314501 20.319706 6.6374974 30
62.029648 50.812248 11.264322 6
18.075487 21.182966 4.8989706 54
55.892155 45.817776 5.0386329 1
36.547104 42.772907 5.9095168 27
9.6434784 7.9012699 -0.86717194 4
12.843681 15.013647 -0.69218659 9
6.3090696 5.1637816 -1.138039 5
6.6906853 7.8195682 -1.0743711 4
4.7010036 3.8394685 -1.2838693 4
4.6954184 5.4867015 -1.2671984 9
3.7786095 3.0762789 -1.3863013 4
3.5972912 4.205719 -1.3701333 5
22.762411 21.512568 7.211133 1
16.409431 22.339054 7.4074435 19
26.164707 35.403587 5.3932667 16
22.321362 21.095757 0.53548342 3
37.985855 51.308594 3.3438749 23
10.611991 10.026985 -0.76586401 4
13.120515 17.710802 -0.38413057 5
6.5472741 6.1828856 -1.0998298 5
7.0641794 9.5355654 -1.0331289 6
4.7480435 4.4812837 -1.2599356 6
4.676434 6.3167658 -1.2407188 5
3.7185981 3.5065029 -1.3592088 17
3.5169611 4.7625055 -1.3566508 5
17.424431 20.311895 6.6538048 28
18.248304 21.242443 4.9267268 39
56.032181 45.62273 5.0375891 23
36.693607 42.657127 5.9103007 22
9.6580191 7.8598061 -0.86612821 4
12.854274 14.925534 -0.69008213 9
6.3300018 5.1459522 -1.138733 5
6.7100897 7.7898011 -1.0733292 4
4.706109 3.8177013 -1.2817885 5
4.7119808 5.4692349 -1.2667644 8
3.7813098 3.0576935 -1.3835467 4
3.6096358 4.1919284 -1.3695289 5
21.457111 20.144787 6.7759495 25
18.084383 24.449678 8.1279621 41
26.250862 35.274818 5.386878 1
22.598953 21.216648 0.54045737 13
38.215477 51.262417 3.3491087 4
10.63608 9.9831963 -0.76520759 4
13.183655 17.673206 -0.38426146 5
6.5605011 6.1543508 -1.0986129 5
7.0853424 9.4981089 -1.0316067 6
4.7539239 4.4571238 -1.2575548 6
4.6899829 6.2913208 -1.2387612 5
3.7337313 3.497453 -1.3605019 17
3.5312827 4.7488604 -1.3560892 5
17.424431 20.311895 6.6538048 28
18.248304 21.242443 4.9267268 39
56.032181 45.62273 5.0375891 23
36.686157 42.663532 5.9103007 22
9.6566458 7.8614917 -0.86612821 4
12.854274 14.925534 -0.69008213 9
6.3291025 5.1470571 -1.138733 5
6.7100854 7.7898054 -1.0733292 4
4.7054429 3.8185225 -1.2817885 5
4.7110262 5.4700565 -1.2667644 8
3.7807763 3.0583537 -1.3835467 4
3.6089041 4.1925583 -1.3695289 5
21.453596 20.148531 6.7759495 25
18.080118 24.452835 8.1279621 41
38.250149 51.421192 7.853354 1
22.595251 21.220592 0.54045737 13
38.206528 51.269085 3.3491087 4
10.634337 9.9850521 -0.76520759 4
13.177489 17.677803 -0.38426146 5
6.5594263 6.1554956 -1.0986129 5
7.0820265 9.5005817 -1.0316067 6
4.7531457 4.457953 -1.2575548 6
4.6877861 6.2929578 -1.2387612 5
3.7325101 3.4987559 -1.3605019 17
3.5304539 4.7494764 -1.3560892 5
17.538044 20.300516 6.6701112 29
18.341673 21.200962 4.931931 27
56.220184 45.450378 5.0401983 18
9.672389 7.8183336 -0.86508453 4
12.903023 14.876798 -0.68990684 8
6.3373961 5.1171622 -1.1369977 5
6.7388644 7.7682137 -1.0735897 4
4.7187433 3.8020744 -1.2817885 5
4.7236404 5.4461374 -1.2650279 7
3.7933042 3.0466413 -1.3842354 4
3.6251054 4.1817684 -1.3701333 4
21.393734 19.952238 6.7349577 20
18.021137 24.195866 8.0633411 40
38.414532 51.267502 7.8503118 2
22.698439 21.168867 0.54115546 13
39.257465 52.297501 3.4252574 24
10.650866 9.9308481 -0.76389486 5
13.228612 17.617701 -0.38395604 6
6.5772419 6.1291785 -1.0980045 5
7.1076732 9.4658432 -1.0305194 5
4.763289 4.4363174 -1.2561263 6
4.7082438 6.27458 -1.2383697 5
3.7393961 3.4807713 -1.3585621 17
3.5470111 4.737124 -1.3560892 5
17.538044 20.300516 6.6701112 29
18.341673 21.200962 4.931931 27
56.220184 45.450378 5.0401983 18
36.949726 42.652813 5.9275479 6
33.744778 38.925468 1.7977601 30
9.672389 7.8183336 -0.86508453 4
12.903023 14.876798 -0.68990684 8
6.3382893 5.1160555 -1.1369977 5
6.7388644 7.7682137 -1.0735897 4
4.7194066 3.8012507 -1.2817885 5
4.7236404 5.4461374 -1.2650279 7
3.7938356 3.045979 -1.3842354 4
3.6251054 4.1817684 -1.3701333 4
21.397215 19.948503 6.7349577 20
18.021137 24.195866 8.0633411 40
38.414532 51.267502 7.8503118 2
24.475681 22.818192 0.58347756 1
39.257465 52.297501 3.4252574 24
10.652598 9.9289894 -0.76389486 5
13.231683 17.615396 -0.38395604 6
6.5783119 6.1280303 -1.0980045 5
7.1093254 9.4646015 -1.0305194 5
4.763289 4.4363174 -1.2561263 6
4.7093387 6.2737584 -1.2383697 5
3.7400036 3.4801188 -1.3585621 17
3.547838 4.736505 -1.3560892 5
17.656565 20.294085 6.6882305 25
18.362196 21.075544 4.9176192 24
56.495197 45.347519 5.0506358 1
22.274059 25.530128 3.5573647 32
30.403662 34.824738 1.6131419 16
9.6976757 7.7829618 -0.86491054 4
12.940081 14.814731 -0.68911761 8
6.3580422 5.0954475 -1.1373448 4
6.7626686 7.7408986 -1.0730689 4
4.7250032 3.7786505 -1.2797077 5
4.7426224 5.429616 -1.2650279 7
3.8006837 3.0297246 -1.382858 4
3.6348963 4.1636047 -1.3683201 5
21.375544 19.789291 6.7063203 22
18.117079 24.14827 8.068511 37
38.340641 50.798355 7.7988949 3
22.808891 21.116096 0.54194081 13
38.545448 50.977203 3.3475385 34
10.676198 9.8815699 -0.76310718 4
13.284045 17.557142 -0.38369423 6
6.5996618 6.1050305 -1.0980045 5
7.1303039 9.4238348 -1.0287797 5
4.7823496 4.4229956 -1.2570786 7
4.7252569 6.2494001 -1.2368037 5
3.7556765 3.4703188 -1.3598553 17
3.5599523 4.7182546 -1.3544046 5
17.656565 20.294085 6.6882305 25
18.362196 21.075544 4.9176192 24
33.773647 38.685101 1.792089 1
9.6976757 7.7829618 -0.86491054 4
12.940081 14.814731 -0.68911761 8
6.3580422 5.0954475 -1.1373448 4
6.7626686 7.7408986 -1.0730689 4
4.7250032 3.7786505 -1.2797077 5
4.7426224 5.429616 -1.2650279 7
3.8006837 3.0297246 -1.382858 4
3.6348963 4.1636047 -1.3683201 5
21.375544 19.789291 6.7063203 22
18.117079 24.14827 8.068511 37
38.340641 50.798355 7.7988949 3
24.435953 22.622246 0.58064157 1
38.545448 50.977203 3.3475385 34
10.676198 9.8815699 -0.76310718 4
13.284045 17.557142 -0.38369423 6
6.5996618 6.1050305 -1.0980045 5
7.1303039 9.4238348 -1.0287797 5
4.7823496 4.4229956 -1.2570786 7
4.7252569 6.2494001 -1.2368037 5
3.7556765 3.4703188 -1.3598553 17
3.5599523 4.7182546 -1.3544046 5
17.861578 20.385609 6.7389627 10
18.383694 20.952093 4.9037409 15
54.622753 43.532093 4.8695478 1
18.915373 21.527824 3.0083292 10
26.412451 30.040424 1.3956307 6
9.7111273 7.7381892 -0.86369282 4
12.948817 14.720691 -0.68683785 7
6.3738518 5.0716815 -1.1369977 5
6.7781539 7.7041745 -1.0712456 4
4.7458291 3.7682106 -1.2817885 5
4.7582955 5.4093299 -1.2641597 6
3.813122 3.0179288 -1.3835467 4
3.6510088 4.1527138 -1.3689245 5
21.439108 19.70961 6.7046351 24
18.260944 24.163887 8.095005 37
26.37463 34.777496 8.4695539 16
38.484688 50.620754 7.7922015 3
22.933987 21.083715 0.54316247 16
38.70652 50.820496 3.3460991 55
10.69592 9.8307295 -0.76205701 5
13.345251 17.510666 -0.38369423 6
6.6172767 6.0785995 -1.0973959 5
7.1525931 9.3850183 -1.0272576 4
4.7995677 4.4079347 -1.2575548 6
4.7440534 6.2289371 -1.2360207 5
3.7695475 3.4588201 -1.3605019 17
3.5822906 4.713562 -1.3566508 5
17.861578 20.385609 6.7389627 10
18.383694 20.952093 4.9037409 15
22.341707 25.42794 3.5539677 36
30.36997 34.542004 1.6049405 20
9.7124767 7.7364941 -0.86369282 4
12.948817 14.720691 -0.68683785 7
6.3738518 5.0716815 -1.1369977 5
6.7781582 7.7041702 -1.0712456 4
4.7458291 3.7682106 -1.2817885 5
4.7592397 5.4084992 -1.2641597 6
3.813122 3.0179288 -1.3835467 4
3.6517336 4.1520762 -1.3689245 5
21.439108 19.70961 6.7046351 24
18.265165 24.160698 8.095005 37
26.380699 34.772896 8.4695539 16
38.493526 50.614037 7.7922015 3
22.933987 21.083715 0.54316247 16
38.715389 50.81374 3.3460991 55
10.69592 9.8307295 -0.76205701 5
13.348306 17.508335 -0.38369423 6
6.6172767 6.0785995 -1.0973959 5
7.154232 9.383769 -1.0272576 4
4.8003373 4.4070969 -1.2575548 6
4.7451401 6.2281094 -1.2360207 5
3.7701509 3.4581621 -1.3605019 17
3.5822906 4.713562 -1.3566508 5
19.000465 21.52593 7.1393871 17
18.409819 20.827381 4.8902965 17
54.566769 43.161427 4.8504124 13
18.936474 21.393188 2.9991829 51
26.457775 29.870472 1.392228 81
9.7368546 7.697752 -0.86334491 4
12.99937 14.669391 -0.68666244 7
6.3904543 5.0467534 -1.1366507 5
6.8096485 7.6829982 -1.0717665 4
4.7576871 3.7492788 -1.2812682 5
4.7773981 5.3891764 -1.2637255 6
3.8222666 3.00245 -1.382858 4
3.6604946 4.1313992 -1.3665069 5
21.741547 19.841084 6.7765112 28
18.417973 24.178131 8.1234388 32
24.114624 31.544472 7.7041445 9
38.402588 50.112156 7.7365255 1
23.022188 21.009624 0.54342425 13
38.832962 50.582386 3.3402114 40
10.72819 9.7880955 -0.76179445 4
13.383463 17.421625 -0.38286525 6
6.6376777 6.0526333 -1.0970916 5
7.1627965 9.3239002 -1.0235608 4
4.8273435 4.3993893 -1.2604117 5
4.7694383 6.212635 -1.2364122 4
3.7792284 3.4410706 -1.3592088 17
3.598063 4.6984653 -1.3560892 5
19.000465 21.52593 7.1393871 17
18.409819 20.827381 4.8902965 17
54.566769 43.161427 4.8504124 13
18.936474 21.393188 2.9991829 51
26.457775 29.870472 1.392228 81
9.7368546 7.697752 -0.86334491 4
12.99937 14.669391 -0.68666244 7
6.3904543 5.0467534 -1.1366507 5
6.8096485 7.6829982 -1.0717665 4
4.7576871 3.7492788 -1.2812682 5
4.7773981 5.3891764 -1.2637255 6
3.8222666 3.00245 -1.382858 4
3.6604946 4.1313992 -1.3665069 5
21.741547 19.841084 6.7765112 28
18.417973 24.178131 8.1234388 32
26.552677 34.734467 8.4838524 31
38.402588 50.112156 7.7365255 1
23.022188 21.009624 0.54342425 13
38.832962 50.582386 3.3402114 40
10.72819 9.7880955 -0.76179445 4
13.383463 17.421625 -0.38286525 6
6.6376777 6.0526333 -1.0970916 5
7.1627965 9.3239002 -1.0235608 4
4.8273435 4.3993893 -1.2604117 5
4.7694383 6.212635 -1.2364122 4
3.7792284 3.4410706 -1.3592088 17
3.598063 4.6984653 -1.3560892 5
14.585566 16.407684 5.4567599 2
14.670074 16.479609 3.8802311 4
14.784328 16.584667 2.3315074 2
22.68866 25.435308 1.1890258 45
9.7558165 7.6575608 -0.86264914 4
13.023882 14.594098 -0.68525952 7
6.402184 5.0198359 -1.1356094 5
6.8281484 7.6499052 -1.0704643 4
4.7726722 3.734154 -1.2817885 5
4.786346 5.3614454 -1.2611208 6
3.8365166 2.9920423 -1.3842354 4
3.6716652 4.114975 -1.3652982 5
21.835945 19.787971 6.7843723 31
20.206511 26.240635 6.4249659 65
38.554539 49.948334 7.7319622 25
23.128725 20.959345 0.5442096 16
38.952789 50.373444 3.3353703 41
10.730836 9.7220964 -0.75956279 4
13.467134 17.404461 -0.38351974 6
6.6532459 6.0244312 -1.0961789 5
7.1922531 9.294899 -1.0231259 5
4.8317504 4.3726339 -1.2575548 5
4.7835484 6.1861777 -1.2344545 5
3.7912173 3.4278576 -1.3592088 17
3.6055238 4.6742969 -1.3527201 5
18.52593 20.841146 6.9334369 12
18.526604 20.812649 4.9020061 1
18.974642 21.286121 2.9934337 31
26.377281 29.570965 1.3825434 1
9.7544794 7.6592636 -0.86264914 4
13.023882 14.594098 -0.68525952 7
6.402184 5.0198359 -1.1356094 5
6.8281441 7.6499095 -1.0704643 4
4.7726722 3.734154 -1.2817885 5
4.7854104 5.3622804 -1.2611208 6
3.8365166 2.9920423 -1.3842354 4
3.6709468 4.1156163 -1.3652982 5
21.835945 19.787971 6.7843723 31
20.201929 26.244164 6.4249659 65
23.128725 20.959345 0.5442096 16
38.944 50.380241 3.3353703 41
