# .PCD v0.7 - Point Cloud Data file format
VERSION 0.7
FIELDS x y z intensity
SIZE 4 4 4 4
TYPE F F F F
COUNT 1 1 1 1
WIDTH 1390
HEIGHT 1
VIEWPOINT 0 0 0 1 0 0 0
POINTS 1390
DATA ascii
69.652657 -38.138885 4.1599236 1
2.1111629 -1.6971476 -0.14059657 17
6.6468616 -3.6457295 -0.13172309 3
2.1076148 -1.6954957 -0.32736292 18
6.835309 -3.7474067 -0.67758989 8
2.1227672 -1.7083033 -0.52187812 17
5.0781784 -2.7819772 -0.91262722 5
2.1184225 -1.7066162 -0.71904856 20
5.0716934 -2.7704394 -1.3240821 4
19.318531 -12.461958 5.7146497 17
17.804028 -11.502765 3.7275717 20
6.2836938 -4.0722003 -0.26156482 5
5.5272322 -3.5822685 -0.68629521 3
4.7278557 -3.0633781 -0.98719066 7
4.4907928 -2.9076948 -1.3242003 34
17.110207 -13.858396 5.0672221 23
20.738585 -16.791668 4.2112994 7
19.363241 -10.637075 4.283628 24
25.096869 -13.82515 3.5088029 27
23.539652 -19.06674 0.52815342 31
69.667885 -38.448055 4.1684279 6
2.0938854 -1.6947082 -0.13980891 17
6.6369243 -3.6689594 -0.13176672 3
2.0942712 -1.6962239 -0.32614592 18
6.8446498 -3.7820852 -0.67976445 8
2.1037486 -1.70451 -0.51854491 17
5.0473003 -2.7868841 -0.90871203 5
2.0996292 -1.7029752 -0.71452224 20
5.0389938 -2.7743368 -1.3179053 4
19.318531 -12.461958 5.7146497 17
17.804028 -11.502765 3.7275717 20
63.918167 -41.384598 2.6578584 2
6.2836938 -4.0722003 -0.26156482 5
5.5272284 -3.5822735 -0.68629521 3
4.7273211 -3.064203 -0.98719066 7
4.4902849 -2.9084785 -1.3242003 34
17.110207 -13.858396 5.0672221 23
20.738585 -16.791668 4.2112994 7
19.361383 -10.640455 4.283628 24
25.094456 -13.82953 3.5088029 27
23.539652 -19.06674 0.52815342 31
69.661179 -38.460213 4.1684279 6
2.0938854 -1.6947082 -0.13980891 17
6.6362834 -3.6701176 -0.13176672 3
2.0942712 -1.6962239 -0.32614592 18
6.8439898 -3.7832801 -0.67976445 8
2.1034513 -1.7048771 -0.51854491 17
5.046814 -2.7877648 -0.90871203 5
2.0993319 -1.7033415 -0.71452224 20
5.0389938 -2.7743368 -1.3179053 4
17.724609 -11.543761 3.7197652 19
26.38744 -17.210758 3.3075418 1
6.2519903 -4.0842776 -0.26086333 4
5.5327997 -3.6147413 -0.68863928 2
4.668643 -3.0505521 -0.97720587 5
4.4755311 -2.9222658 -1.3229915 34
21.181423 -11.693262 6.4646316 1
20.720905 -16.903469 4.2202744 16
19.296494 -10.697073 4.2779088 24
25.17808 -13.996141 3.5276659 28
23.731039 -19.366259 0.53404361 30
69.463028 -38.683693 4.1650262 16
2.0818586 -1.6976347 -0.13941509 17
6.6555419 -3.7126622 -0.1324212 4
2.0822754 -1.6991782 -0.32523322 18
6.8474855 -3.818032 -0.68150407 8
2.0895884 -1.7063613 -0.51664025 18
5.0149837 -2.7942429 -0.90479684 5
2.0855997 -1.7049062 -0.7119357 20
5.0202689 -2.788063 -1.3156593 5
17.724609 -11.543761 3.7197652 19
26.38744 -17.210758 3.3075418 1
64.121742 -41.850731 2.6726904 1
25.892202 -16.907118 -1.0840516 3
5.5327997 -3.6147413 -0.68863928 2
4.668643 -3.0505521 -0.97720587 5
4.4755311 -2.9222658 -1.3229915 34
21.181423 -11.693262 6.4646316 1
20.720905 -16.903469 4.2202744 16
19.296494 -10.697073 4.2779088 24
25.17808 -13.996141 3.5276659 28
23.731039 -19.366259 0.53404361 30
69.463028 -38.683693 4.1650262 16
2.0818586 -1.6976347 -0.13941509 17
6.6555419 -3.7126622 -0.1324212 4
2.0822754 -1.6991782 -0.32523322 18
6.8474855 -3.818032 -0.68150407 8
2.0895884 -1.7063613 -0.51664025 18
5.0149837 -2.7942429 -0.90479684 5
2.0855997 -1.7049062 -0.7119357 20
5.0202689 -2.788063 -1.3156593 5
18.668791 -12.232959 5.5479579 23
17.704792 -11.619068 3.724102 18
6.2397828 -4.1074495 -0.26095104 4
5.4972992 -3.6190012 -0.68577433 2
4.6415114 -3.0560052 -0.97373295 4
4.4673309 -2.939203 -1.3235959 10
16.261589 -13.364797 4.8437338 20
21.125704 -11.758909 6.4601078 1
20.648418 -16.964722 4.2175426 9
19.291176 -10.782319 4.285058 23
25.224323 -14.137309 3.5410523 16
23.717361 -19.493418 0.53526527 28
68.815979 -38.638725 4.1342783 20
2.0662782 -1.6969631 -0.1387587 17
6.6512599 -3.7407682 -0.13259573 4
2.066751 -1.6985528 -0.32371199 18
6.8428025 -3.8467877 -0.68237388 8
2.072252 -1.7042847 -0.51378328 18
4.994431 -2.8056934 -0.90283924 5
2.0740452 -1.7075676 -0.70999581 20
4.9956198 -2.79725 -1.3117285 6
18.668791 -12.232959 5.5479579 23
17.704792 -11.619068 3.724102 18
26.422781 -17.365568 3.3195627 1
63.89386 -42.020763 2.6692879 1
25.730753 -16.930111 -1.0797551 1
5.497303 -3.6189961 -0.68577433 2
4.642045 -3.0551951 -0.97373295 4
4.4678435 -2.9384232 -1.3235959 10
16.261589 -13.364797 4.8437338 20
20.982126 -11.674232 6.4155197 1
20.648418 -16.964722 4.2175426 9
19.293056 -10.778952 4.285058 23
25.226789 -14.132907 3.5410523 16
23.717361 -19.493418 0.53526527 28
68.822731 -38.626713 4.1342783 20
2.0662782 -1.6969631 -0.1387587 17
6.6519127 -3.7396073 -0.13259573 4
2.066751 -1.6985528 -0.32371199 18
6.8434739 -3.8455932 -0.68237388 8
2.0725496 -1.7039229 -0.51378328 18
4.9949207 -2.8048217 -0.90283924 5
2.0743432 -1.7072057 -0.70999581 20
4.9956198 -2.79725 -1.3117285 6
18.642168 -12.308742 5.5527892 25
17.68877 -11.697092 3.7293065 13
23.99872 -15.89288 3.0216565 10
25.55488 -16.942518 -1.0748446 29
5.4970708 -3.6464057 -0.68733704 3
4.6046715 -3.0537009 -0.96808928 5
4.5040798 -2.9848039 -1.3374966 4
16.17168 -13.385749 4.8308191 20
21.078169 -11.824175 6.4575229 8
19.970797 -16.525028 4.0907202 13
19.261728 -10.849843 4.2864876 24
25.164337 -14.213558 3.5392268 8
23.624142 -19.555368 0.53469807 31
68.348503 -38.674931 4.1138678 20
2.0488055 -1.6946113 -0.13797104 17
6.6627469 -3.7763479 -0.13307567 3
2.0531669 -1.6994233 -0.32249504 19
6.840847 -3.8755901 -0.68346113 8
2.0552526 -1.7017487 -0.51092625 17
4.9593029 -2.807663 -0.89814103 6
2.0572217 -1.7051826 -0.70611608 20
4.9688458 -2.805104 -1.3072363 4
18.642168 -12.308742 5.5527892 25
17.68877 -11.697092 3.7293065 13
26.422121 -17.497503 3.327141 1
63.907158 -42.349808 2.6760061 1
25.55488 -16.942518 -1.0748446 29
5.4970708 -3.6464057 -0.68733704 3
4.6046715 -3.0537009 -0.96808928 5
4.5040798 -2.9848039 -1.3374966 4
16.17168 -13.385749 4.8308191 20
21.078169 -11.824175 6.4575229 8
19.970797 -16.525028 4.0907202 13
19.261728 -10.849843 4.2864876 24
28.530838 -16.114357 4.0132337 1
23.624142 -19.555368 0.53469807 31
68.348503 -38.674931 4.1138678 20
2.0488055 -1.6946113 -0.13797104 17
6.6627469 -3.7763479 -0.13307567 3
2.0531669 -1.6994233 -0.32249504 19
6.840847 -3.8755901 -0.68346113 8
2.0552526 -1.7017487 -0.51092625 17
4.9593029 -2.807663 -0.89814103 6
2.0572217 -1.7051826 -0.70611608 20
4.9688458 -2.805104 -1.3072363 4
18.619432 -12.382583 5.5582252 28
26.430143 -17.629171 3.3355033 27
25.411283 -16.968901 -1.0711619 35
5.4911528 -3.6687567 -0.6881184 3
4.5801849 -3.059386 -0.96505046 8
4.5022302 -3.0051081 -1.3399142 3
15.605093 -13.004143 4.6741529 13
21.024124 -11.885691 6.4529996 2
19.843798 -16.531097 4.0758915 10
19.016462 -10.794971 4.2397814 25
23.597567 -19.665609 0.53557068 31
2.0374219 -1.6965997 -0.13757721 18
6.6588731 -3.8033755 -0.13325019 3
2.0418043 -1.7014534 -0.32158232 18
6.8366113 -3.903188 -0.68433094 8
2.0401771 -1.7006916 -0.5085454 18
4.9392366 -2.8179841 -0.89618343 6
2.0422897 -1.7042531 -0.70288295 21
4.970109 -2.8275807 -1.3100441 4
18.619432 -12.382583 5.5582252 28
26.43322 -17.624556 3.3355033 27
25.411283 -16.968901 -1.0711619 35
5.4911528 -3.6687567 -0.6881184 3
4.5801849 -3.059386 -0.96505046 8
4.5022302 -3.0051081 -1.3399142 3
15.607363 -13.001418 4.6741529 13
21.024124 -11.885691 6.4529996 2
19.84668 -16.527636 4.0758915 10
19.016462 -10.794971 4.2397814 25
23.601 -19.661488 0.53557068 31
2.0377181 -1.696244 -0.13757721 18
6.6595325 -3.802218 -0.13325019 3
2.0421014 -1.7010971 -0.32158232 18
6.8372927 -3.9019947 -0.68433094 8
2.0401771 -1.7006916 -0.5085454 18
4.9397287 -2.8171217 -0.89618343 6
2.0425873 -1.7038966 -0.70288295 21
4.970602 -2.8267133 -1.3100441 4
18.581982 -12.456144 5.5606408 28
24.147942 -16.229206 3.0543218 9
25.185171 -16.951721 -1.0642347 30
5.4611664 -3.677752 -0.6860348 3
4.5566845 -3.0679076 -0.9624458 9
4.5052781 -3.0310624 -1.3441448 4
15.64357 -13.129015 4.6994214 13
19.901361 -16.69709 4.0996952 10
18.578447 -10.636662 4.1506581 35
26.837921 -15.406597 3.789921 16
23.597702 -19.805714 0.53714144 31
2.0219278 -1.6956742 -0.13692082 17
6.6563869 -3.8328311 -0.13346836 3
2.0244541 -1.6989921 -0.3197569 18
6.8359008 -3.9344752 -0.68563569 4
2.0207815 -1.6971012 -0.50521231 18
4.9100981 -2.8241439 -0.89265978 5
2.0215464 -1.6989328 -0.69770992 22
4.953866 -2.8412814 -1.3083594 4
18.581982 -12.456144 5.5606408 28
26.121868 -17.562246 3.3046675 1
25.185171 -16.951721 -1.0642347 30
5.461163 -3.677757 -0.6860348 3
4.556149 -3.0687027 -0.9624458 9
4.5047493 -3.0318487 -1.3441448 4
15.641279 -13.131745 4.6994214 13
20.993017 -11.974703 6.4575229 1
19.898447 -16.700562 4.0996952 10
18.576591 -10.639904 4.1506581 35
29.63928 -17.021076 4.1863456 6
23.594244 -19.809832 0.53714144 31
2.021632 -1.696027 -0.13692082 17
6.6550522 -3.8351493 -0.13346836 3
2.0241575 -1.6993455 -0.3197569 18
6.834527 -3.936861 -0.68563569 4
2.0204852 -1.697454 -0.50521231 18
4.9091125 -2.8258579 -0.89265978 5
2.0209532 -1.6996384 -0.69770992 22
4.9533701 -2.8421459 -1.3083594 4
18.610767 -12.569807 5.5823836 20
19.719007 -13.338202 4.187284 17
23.999779 -16.25765 3.0430849 9
24.99143 -16.948389 -1.0585351 27
5.4997396 -3.7316833 -0.69254613 4
4.5331826 -3.0762975 -0.95984101 8
4.4901223 -3.0448332 -1.342936 4
15.66231 -13.242893 4.7196364 13
19.917349 -16.835281 4.1156945 10
18.543589 -10.707138 4.1516118 37
26.691069 -15.452653 3.7771428 6
23.34363 -19.738733 0.53299648 23
2.0080752 -1.6966239 -0.13639572 17
6.6567593 -3.867137 -0.13377377 3
2.0125318 -1.7015907 -0.31884417 18
6.8336706 -3.9681907 -0.68694043 5
2.0164204 -1.7060828 -0.50568843 18
4.888535 -2.8367887 -0.89070225 5
2.0113242 -1.7035584 -0.69641662 21
4.8548098 -2.8082607 -1.2847753 5
18.610767 -12.569807 5.5823836 20
26.115986 -17.690968 3.311723 1
64.514938 -43.731636 2.7205029 1
24.99143 -16.948389 -1.0585351 27
5.4997435 -3.7316782 -0.69254613 4
4.5337195 -3.0755062 -0.95984101 8
4.490653 -3.0440497 -1.342936 4
15.66231 -13.242893 4.7196364 13
21.051613 -12.100801 6.487895 1
19.917349 -16.835281 4.1156945 10
18.545458 -10.7039 4.1516118 37
29.10799 -16.84466 4.1191092 3
23.34363 -19.738733 0.53299648 23
2.0080752 -1.6966239 -0.13639572 17
6.657434 -3.8659749 -0.13377377 3
2.0125318 -1.7015907 -0.31884417 18
6.834363 -3.9669981 -0.68694043 5
2.0167181 -1.7057308 -0.50568843 18
4.8890305 -2.8359356 -0.89070225 5
2.0116215 -1.7032073 -0.69641662 21
4.8548098 -2.8082607 -1.2847753 5
18.699154 -12.724759 5.6222444 21
19.664188 -13.401407 4.1855493 15
23.981905 -16.367954 3.0480499 3
24.915617 -17.02425 -1.0578337 30
5.4969492 -3.7578659 -0.69384837 5
4.5412545 -3.1038094 -0.9637481 7
4.5320978 -3.0952585 -1.35865 7
15.834837 -13.483871 4.7858968 10
20.006998 -17.031164 4.146522 10
18.465551 -10.743896 4.1420798 29
26.723278 -15.589834 3.7890084 20
22.583801 -19.231779 0.51715839 17
1.9945391 -1.6971468 -0.13587062 18
6.6741099 -3.9068513 -0.13438462 2
1.9971383 -1.7005559 -0.31732294 18
6.8204737 -3.9908302 -0.68694043 5
1.9995477 -1.7032046 -0.50283146 18
4.8641739 -2.8442717 -0.88796163 5
1.9964809 -1.7023785 -0.69318348 22
4.7860241 -2.7908783 -1.2690525 6
18.699154 -12.724759 5.6222444 21
19.664188 -13.401407 4.1855493 15
26.154705 -17.850693 3.3245277 26
63.726402 -43.522587 2.6936302 1
24.915617 -17.02425 -1.0578337 30
5.4969492 -3.7578659 -0.69384837 5
4.5412545 -3.1038094 -0.9637481 7
4.5320978 -3.0952585 -1.35865 7
15.834837 -13.483871 4.7858968 10
20.006998 -17.031164 4.146522 10
18.465551 -10.743896 4.1420798 29
28.828232 -16.817406 4.0877724 1
22.583801 -19.231779 0.51715839 17
1.9945391 -1.6971468 -0.13587062 18
6.6741099 -3.9068513 -0.13438462 2
1.9971383 -1.7005559 -0.31732294 18
6.8204737 -3.9908302 -0.68694043 5
1.9995477 -1.7032046 -0.50283146 18
4.8641739 -2.8442717 -0.88796163 5
1.9964809 -1.7023785 -0.69318348 22
4.7860241 -2.7908783 -1.2690525 6
18.778929 -12.870347 5.6590858 10
17.406889 -11.948033 3.7128265 16
24.159033 -16.606524 3.0775793 25
24.644958 -16.95949 -1.0487145 25
5.502893 -3.7887583 -0.69619244 6
4.5329661 -3.1202469 -0.9641822 6
4.4878225 -3.0869122 -1.3483754 2
15.636537 -13.404697 4.7392902 14
20.038532 -17.172943 4.1648626 8
18.410767 -10.793905 4.1377907 19
29.086796 -17.097715 4.1324954 20
22.540777 -19.324461 0.51763833 28
1.9737403 -1.6907487 -0.13482042 17
6.6374269 -3.9150069 -0.13390467 2
1.9801903 -1.6974723 -0.31549752 18
6.8265171 -4.0247984 -0.68889749 3
1.9845787 -1.7018323 -0.50045067 18
4.8398166 -2.8516238 -0.88522094 5
1.9889934 -1.7074158 -0.69253689 21
4.7368164 -2.7833185 -1.2583834 6
18.778929 -12.870347 5.6590858 10
19.765804 -13.566848 4.2167749 1
26.231699 -18.024286 3.3415136 1
63.627018 -43.76482 2.6955497 1
24.644958 -16.95949 -1.0487145 25
5.502893 -3.7887583 -0.69619244 6
4.5329661 -3.1202469 -0.9641822 6
4.4878225 -3.0869122 -1.3483754 2
15.638876 -13.401966 4.7392902 14
20.041529 -17.169447 4.1648626 8
18.410767 -10.793905 4.1377907 19
29.086796 -17.097715 4.1324954 20
22.544149 -19.320524 0.51763833 28
1.9740355 -1.6904043 -0.13482042 17
6.6381063 -3.9138527 -0.13390467 2
1.9804865 -1.6971267 -0.31549752 18
6.8272195 -4.0236068 -0.68889749 3
1.9845787 -1.7018323 -0.50045067 18
4.8403139 -2.8507793 -0.88522094 5
1.9892914 -1.7070686 -0.69253689 21
4.7373023 -2.7824917 -1.2583834 6
19.005402 -13.123262 5.7412243 15
17.409632 -12.039526 3.7223678 4
23.997526 -16.612965 3.0639906 22
25.309553 -17.540718 1.0741192 3
19.667837 -13.636375 -0.83870852 9
5.5182419 -3.827775 -0.69983876 9
4.5341883 -3.1444647 -0.96678692 6
4.5109243 -3.1260352 -1.35865 3
15.450001 -13.333904 4.6960526 17
20.175909 -17.407074 4.2054462 9
19.059715 -11.263755 4.2926836 20
26.616543 -15.77137 3.7890084 20
22.506845 -19.425234 0.51833642 19
1.9605645 -1.6907581 -0.13429531 18
6.6351514 -3.9433796 -0.13412282 2
1.963285 -1.6942952 -0.31367207 19
1.9730566 -1.7039334 -0.49902213 18
4.8218365 -2.8626225 -0.88365489 6
1.9705373 -1.7029408 -0.68801045 22
4.7107821 -2.7890961 -1.2538912 6
19.005402 -13.123262 5.7412243 15
19.910721 -13.76878 4.2579756 15
23.994627 -16.617153 3.0639906 22
63.621731 -44.089115 2.7018316 64
24.68417 -17.113737 -1.0529233 3
5.5182419 -3.827775 -0.69983876 9
4.5341883 -3.1444647 -0.96678692 6
4.5109243 -3.1260352 -1.35865 3
15.447673 -13.336601 4.6960526 17
22.176876 -13.052938 6.8762636 1
20.172871 -17.410593 4.2054462 9
19.059715 -11.263755 4.2926836 20
26.616543 -15.77137 3.7890084 20
22.503454 -19.429161 0.51833642 19
66.128632 -39.253971 4.028429 1
1.9602693 -1.6911002 -0.13429531 18
6.6344666 -3.9445329 -0.13412282 2
1.9629892 -1.6946379 -0.31367207 19
1.9730566 -1.7039334 -0.49902213 18
4.8213367 -2.8634641 -0.88365489 6
1.9702401 -1.7032846 -0.68801045 22
4.7102952 -2.7899187 -1.2538912 6
19.833782 -13.797635 6.0063615 30
17.474571 -12.174808 3.7453532 16
24.13835 -16.841639 3.0898614 17
19.57505 -13.673474 -0.83677948 38
5.5191159 -3.8569794 -0.70166194 8
4.5312595 -3.16591 -0.96852344 5
4.482079 -3.129271 -1.3532106 3
19.958401 -11.841709 6.2003336 32
20.136202 -17.501965 4.2105188 16
18.845261 -11.226009 4.2531261 18
26.83404 -16.027008 3.827951 25
1.9487035 -1.693017 -0.13390149 18
6.620657 -3.9676671 -0.13412282 1
5.6826053 -3.4049215 -0.57538599 3
4.798595 -2.8726776 -0.88130581 9
4.6775074 -2.7926259 -1.2477144 7
19.833782 -13.797635 6.0063615 30
17.474571 -12.174808 3.7453532 16
24.13835 -16.841639 3.0898614 17
19.323526 -13.492794 0.82179582 1
19.57505 -13.673474 -0.83677948 38
5.5191159 -3.8569794 -0.70166194 8
4.5312595 -3.16591 -0.96852344 5
4.482079 -3.129271 -1.3532106 3
21.730274 -12.892515 6.7515459 1
20.136202 -17.501965 4.2105188 16
18.845261 -11.226009 4.2531261 18
19.342152 -16.811714 2.2390308 1
26.83404 -16.027008 3.827951 25
65.860519 -39.406384 4.0204482 1
1.9487035 -1.693017 -0.13390149 18
15.631111 -9.3603125 -0.31741822 1
5.6826053 -3.4049215 -0.57538599 3
4.798595 -2.8726776 -0.88130581 9
4.6775074 -2.7926259 -1.2477144 7
17.381584 -12.200374 3.7345109 16
19.752737 -13.884953 2.5340314 29
19.621685 -13.803077 0.83654088 35
19.533333 -13.746033 -0.83704251 39
5.487318 -3.8633444 -0.69931787 6
4.5262222 -3.185957 -0.9698258 6
4.4731131 -3.146292 -1.353815 4
20.016447 -11.970782 6.2313514 65
18.721788 -11.241208 4.2340622 16
24.809164 -14.935753 3.5462246 5
6.5768023 -3.9726772 -0.13351198 1
5.6792164 -3.4298813 -0.5762558 8
4.7695017 -2.8779449 -0.87778217 9
4.6531124 -2.8001564 -1.2437837 7
20.124477 -14.125251 4.3247643 3
19.752737 -13.884953 2.5340314 29
19.621685 -13.803077 0.83654088 35
19.533333 -13.746033 -0.83704251 39
5.487318 -3.8633444 -0.69931787 6
4.5262222 -3.185957 -0.9698258 6
4.4731131 -3.146292 -1.353815 4
21.372131 -12.781179 6.6539693 1
18.721788 -11.241208 4.2340622 16
27.18614 -16.366243 3.8863652 16
65.767456 -39.663109 4.0231957 1
15.52129 -9.3683367 -0.31584749 1
5.6792164 -3.4298813 -0.5762558 8
4.7695017 -2.8779449 -0.87778217 9
4.6531124 -2.8001564 -1.2437837 7
19.176107 -13.539821 5.8354416 16
17.314768 -12.243916 3.7293065 8
19.657478 -13.920774 2.5280209 40
19.575422 -13.87293 0.83662814 43
19.515806 -13.835805 -0.83835781 32
5.5042262 -3.9040432 -0.70322472 6
4.5251179 -3.2088542 -0.97199643 5
4.4482446 -3.1520748 -1.3495842 95
20.348949 -12.266173 6.3483143 86
18.510248 -11.202332 4.1949816 18
24.782337 -15.037705 3.5498755 10
5.6608243 -3.4458036 -0.57560343 9
4.7678695 -2.8997009 -0.87934822 3
4.6287217 -2.8075502 -1.239853 6
19.176107 -13.539821 5.8354416 16
19.882048 -14.058963 4.2831292 9
19.657478 -13.920774 2.5280209 40
19.575422 -13.87293 0.83662814 43
19.515806 -13.835805 -0.83835781 32
5.5042224 -3.904048 -0.70322472 6
4.5245581 -3.2096438 -0.97199643 5
4.4476943 -3.1528511 -1.3495842 95
20.346809 -12.269725 6.3483143 86
18.508291 -11.205563 4.1949816 18
26.911711 -16.335762 3.8556368 1
65.587509 -39.883141 4.021102 1
15.52529 -9.4485435 -0.31663284 1
5.660223 -3.4467916 -0.57560343 9
4.7673631 -2.900533 -0.87934822 3
4.6287217 -2.8075502 -1.239853 6
19.729254 -14.038948 6.019649 18
19.66596 -14.014587 4.2475667 29
19.610371 -13.995616 2.5285435 40
19.626108 -14.01718 0.8409906 1
24.016903 -17.158905 -1.0346849 9
5.4635744 -3.9054072 -0.69983876 3
4.5127635 -3.2262058 -0.97199643 6
4.4321599 -3.1663127 -1.3483754 98
19.810524 -12.045693 6.1945176 10
18.35397 -11.204297 4.1692457 22
24.701132 -15.118506 3.5465288 7
5.6581678 -3.4740226 -0.57669073 9
4.7630172 -2.9218552 -0.88052279 4
4.6163211 -2.8232274 -1.2392915 7
21.273075 -15.137301 6.4913397 1
19.66596 -14.014587 4.2475667 29
19.610371 -13.995616 2.5285435 40
27.860928 -19.897528 1.194348 1
24.016903 -17.158905 -1.0346849 9
5.4635744 -3.9054072 -0.69983876 3
4.5127635 -3.2262058 -0.97199643 6
4.4321599 -3.1663127 -1.3483754 98
19.810524 -12.045693 6.1945176 10
18.35397 -11.204297 4.1692457 22
27.027342 -16.541777 3.8808887 9
65.200378 -39.975819 4.0063171 1
15.535302 -9.5328264 -0.31754908 1
5.6581678 -3.4740226 -0.57669073 9
4.7630172 -2.9218552 -0.88052279 4
4.6163211 -2.8232274 -1.2392915 7
19.682098 -14.109145 6.0202532 25
19.618921 -14.084586 4.2480006 31
19.628019 -14.111876 2.5371671 16
27.685835 -19.918791 1.189811 24
23.729731 -17.079185 -1.0248641 17
5.4862356 -3.9505966 -0.70452696 3
4.5154624 -3.2520049 -0.97503525 6
4.4210801 -3.1817641 -1.3483754 98
19.856909 -12.169017 6.2223048 19
18.049253 -11.105029 4.1087184 27
24.639757 -15.199429 3.5453117 24
5.656601 -3.5002975 -0.57777798 9
4.7611938 -2.94365 -0.88208878 4
4.5732393 -2.8189001 -1.2303071 9
19.682098 -14.109145 6.0202532 25
19.618921 -14.084586 4.2480006 31
19.628019 -14.111876 2.5371671 16
27.685835 -19.918791 1.189811 24
23.729731 -17.079185 -1.0248641 17
5.4862394 -3.9505918 -0.70452696 3
4.5160303 -3.2512167 -0.97503525 6
4.4216356 -3.1809928 -1.3483754 98
19.859034 -12.165551 6.2223048 19
18.051193 -11.101879 4.1087184 27
26.927979 -16.603968 3.8744998 1
65.003738 -40.152454 4.0023923 1
15.569526 -9.6250191 -0.31890166 1
5.6572118 -3.4993103 -0.57777798 9
4.7617078 -2.9428191 -0.88208878 4
4.5732393 -2.8189001 -1.2303071 9
19.50095 -14.082614 5.9797873 28
19.619516 -14.189049 4.2588429 23
27.634344 -20.028505 1.1905962 22
23.566803 -17.087126 -1.0203922 23
5.4804683 -3.9755559 -0.70556879 3
4.5066481 -3.2684059 -0.97546935 6
4.4124699 -3.1978302 -1.3489798 100
19.800005 -12.224651 6.217135 17
24.73255 -15.370095 3.5660002 32
5.6491914 -3.5216684 -0.57821292 9
4.7472134 -2.9568157 -0.88130581 3
4.5613012 -2.8335629 -1.2297455 17
19.50095 -14.082614 5.9797873 28
19.619516 -14.189049 4.2588429 23
27.634344 -20.028505 1.1905962 22
23.566803 -17.087126 -1.0203922 23
5.4804683 -3.9755559 -0.70556879 3
4.5066481 -3.2684059 -0.97546935 6
4.4124699 -3.1978302 -1.3489798 100
19.800005 -12.224651 6.217135 17
27.006863 -16.782978 3.8942754 1
64.623665 -40.230034 3.9876072 1
5.6491914 -3.5216684 -0.57821292 9
4.7472134 -2.9568157 -0.88130581 3
4.5613012 -2.8335629 -1.2297455 17
19.870115 -14.449647 6.1078267 28
19.749498 -14.383016 4.2974415 14
24.516212 -17.893166 1.0586761 18
23.451488 -17.122459 -1.0178492 18
5.4672542 -3.9937079 -0.70556879 3
4.5077171 -3.2920403 -0.97807407 6
4.3979206 -3.2095861 -1.347771 71
19.582975 -12.180582 6.161561 23
17.921076 -11.190706 4.0963268 22
24.574167 -15.384889 3.5504839 8
5.6543617 -3.5509672 -0.57995254 6
4.7373815 -2.9725416 -0.88130581 4
4.5436149 -2.8435104 -1.2274994 35
19.870115 -14.449647 6.1078267 28
19.749498 -14.383016 4.2974415 14
27.460808 -20.041977 1.1859721 1
23.451488 -17.122459 -1.0178492 18
5.4672542 -3.9937079 -0.70556879 3
4.5077171 -3.2920403 -0.97807407 6
4.3979206 -3.2095861 -1.347771 71
19.582975 -12.180582 6.161561 23
17.921076 -11.190706 4.0963268 22
26.921612 -16.854015 3.8900161 16
64.352432 -40.357906 3.9791026 1
5.6549816 -3.5499802 -0.57995254 6
4.7379003 -2.971715 -0.88130581 4
4.5441113 -2.8427176 -1.2274994 35
21.901958 -16.044125 6.7504377 1
19.72101 -14.467885 4.3022118 12
27.147102 -19.958652 1.175415 24
23.31912 -17.15093 -1.0146927 3
5.4773178 -4.0304437 -0.70869422 3
4.5001655 -3.3106711 -0.97894233 6
4.4199266 -3.2493329 -1.3580456 5
19.307035 -12.102686 6.087894 27
18.016933 -11.338128 4.1273055 23
24.255861 -15.303781 3.5121496 8
5.6257105 -3.5590575 -0.57821292 2
4.7191448 -2.9829645 -0.8797397 4
4.5403461 -2.8624547 -1.229184 39
21.901958 -16.044125 6.7504377 1
19.72101 -14.467885 4.3022118 12
27.147102 -19.958652 1.175415 24
23.31912 -17.15093 -1.0146927 3
5.4773178 -4.0304437 -0.70869422 3
4.5001655 -3.3106711 -0.97894233 6
4.4199266 -3.2493329 -1.3580456 5
19.307035 -12.102686 6.087894 27
18.016933 -11.338128 4.1273055 23
26.879404 -16.958473 3.8924499 9
64.198502 -40.574284 3.9783175 1
5.6250896 -3.5600393 -0.57821292 2
4.7186246 -2.983788 -0.8797397 4
4.5398464 -2.8632467 -1.229184 39
19.703489 -14.566411 4.3100185 18
24.435728 -18.103832 1.0607702 23
5.496469 -4.0756583 -0.71312195 2
4.5077848 -3.3417981 -0.98328358 6
4.491828 -3.3275721 -1.384034 2
19.184958 -12.124357 6.0633378 27
18.033287 -11.440886 4.1406498 27
23.914827 -15.211504 3.4707727 24
5.6435103 -3.6007047 -0.58147472 2
4.7076564 -3.0010624 -0.8797397 3
4.5272646 -2.8785617 -1.2286224 42
19.703489 -14.566411 4.3100185 18
27.057707 -20.046118 1.1747171 1
5.496469 -4.0756583 -0.71312195 2
4.5077848 -3.3417981 -0.98328358 6
4.491828 -3.3275721 -1.384034 2
19.184958 -12.124357 6.0633378 27
18.033287 -11.440886 4.1406498 27
23.914827 -15.211504 3.4707727 24
64.106209 -40.845528 3.9818501 1
5.6435103 -3.6007047 -0.58147472 2
4.7076564 -3.0010624 -0.8797397 3
4.5272646 -2.8785617 -1.2286224 42
16.8864 -12.557255 5.2302756 7
19.666348 -14.645394 4.3130541 25
24.398418 -18.208443 1.0619044 22
4.5177979 -3.3737094 -0.98805892 2
4.5482507 -3.3939843 -1.4051874 3
19.075291 -12.148455 6.0420136 20
18.243465 -11.663667 4.1983175 30
23.851137 -15.288198 3.4692516 8
5.6413865 -3.6271098 -0.58256203 1
4.7033877 -3.0214758 -0.88091433 4
4.5130844 -2.8917224 -1.2274994 49
16.8864 -12.557255 5.2302756 7
19.666348 -14.645394 4.3130541 25
26.997581 -20.147917 1.1751533 1
4.5177979 -3.3737094 -0.98805892 2
4.5482507 -3.3939843 -1.4051874 3
19.075291 -12.148455 6.0420136 20
18.243465 -11.663667 4.1983175 30
26.481575 -16.973669 3.8522902 16
63.887604 -41.0205 3.9771402 1
48.731018 -31.302158 -1.0103716 1
5.6413865 -3.6271098 -0.58256203 1
4.7033877 -3.0214758 -0.88091433 4
4.5130844 -2.8917224 -1.2274994 49
16.706781 -12.509958 5.1873951 27
19.662981 -14.744499 4.323029 17
27.024498 -20.307871 1.1792539 31
2.2994988 -1.7309456 -0.099785708 16
19.038965 -12.214251 6.0433059 20
18.181988 -11.709487 4.1930752 26
24.208941 -15.630956 3.5288827 21
5.6544232 -3.6620264 -0.58517146 1
4.6891942 -3.0343769 -0.88013124 4
4.5075665 -2.9093108 -1.2286224 62
16.706781 -12.509958 5.1873951 27
19.662981 -14.744499 4.323029 17
27.024498 -20.307871 1.1792539 31
2.2994988 -1.7309456 -0.099785708 16
19.038965 -12.214251 6.0433059 20
18.181988 -11.709487 4.1930752 26
26.368855 -17.025061 3.8440757 1
64.388535 -41.644268 4.0169153 1
48.758373 -31.536543 -1.0129895 1
5.6550627 -3.6610396 -0.58517146 1
4.6897235 -3.0335584 -0.88013124 4
4.5080738 -2.908524 -1.2286224 62
16.604902 -12.52438 5.1692758 27
19.853058 -14.99555 4.3763728 5
27.088919 -20.504612 1.1851869 23
2.2336843 -1.6937176 -0.097155154 14
2.2309511 -1.6916558 -0.28962439 14
19.29236 -12.471999 6.1376514 18
18.369543 -11.92113 4.2459774 19
24.106386 -15.684247 3.5218852 23
4.6853151 -3.0539501 -0.88130581 4
4.4917636 -2.9202642 -1.2269379 67
16.604902 -12.52438 5.1692758 27
19.853058 -14.99555 4.3763728 5
27.088919 -20.504612 1.1851869 23
2.2336843 -1.6937176 -0.097155154 14
2.2309511 -1.6916558 -0.28962439 14
19.29236 -12.471999 6.1376514 18
18.369543 -11.92113 4.2459774 19
24.106386 -15.684247 3.5218852 23
64.700844 -42.167271 4.0455689 1
28.023064 -18.273418 -0.58335137 1
4.684782 -3.0547676 -0.88130581 4
4.4912539 -2.9210486 -1.2269379 67
16.67285 -12.671751 5.2049098 28
20.901058 -15.907635 4.6205411 1
2.2135568 -1.6912851 -0.09654136 14
2.2168288 -1.693789 -0.28858259 15
2.2171743 -1.6934556 -0.48578113 16
2.2415109 -1.7108003 -0.69383013 19
19.301157 -12.578218 6.1550994 21
23.810099 -15.616035 3.4868977 20
5.8841105 -3.8705792 -0.61191845 1
4.6735549 -3.0719178 -0.88130581 4
4.4845939 -2.9401574 -1.228061 75
16.67285 -12.671751 5.2049098 28
20.901058 -15.907635 4.6205411 1
2.2135568 -1.6912851 -0.09654136 14
2.2168248 -1.6937937 -0.28858259 15
2.2168787 -1.6938424 -0.48578113 16
2.2412124 -1.7111915 -0.69383013 19
19.298962 -12.581586 6.1550994 21
23.807369 -15.620191 3.4868977 20
64.6866 -42.512737 4.0548592 1
27.831545 -18.301243 -0.58082074 1
5.8834352 -3.8716059 -0.61191845 1
4.673018 -3.0727334 -0.88130581 4
4.4845939 -2.9401574 -1.228061 75
16.5399 -12.662048 5.1771278 31
19.610413 -15.033882 4.3464484 17
2.1997151 -1.692912 -0.096190609 15
2.2010407 -1.6939464 -0.28728032 15
2.2011914 -1.6940697 -0.48361051 16
2.2140615 -1.7027527 -0.68718195 19
19.196381 -12.610434 6.1363592 20
18.031677 -11.890689 4.1878328 21
23.85828 -15.772974 3.5024137 25
5.8075876 -3.8508701 -0.60539478 2
4.6705017 -3.094475 -0.88287187 4
4.47227 -2.954453 -1.2274994 79
16.5399 -12.662048 5.1771278 31
19.610413 -15.033882 4.3464484 17
2.1997151 -1.692912 -0.096190609 15
2.2010448 -1.6939417 -0.28728032 15
2.2014868 -1.6936854 -0.48361051 16
2.2143586 -1.7023665 -0.68718195 19
19.198582 -12.607082 6.1363592 20
18.033752 -11.887542 4.1878328 21
23.861031 -15.768808 3.5024137 25
64.51403 -42.706345 4.052896 1
27.812384 -18.421036 -0.58169335 1
5.8082595 -3.8498566 -0.60539478 2
4.6710415 -3.0936594 -0.88287187 4
4.47227 -2.954453 -1.2274994 79
16.392136 -12.635379 5.1439099 30
19.511724 -15.061223 4.3356061 34
2.1822329 -1.6910238 -0.095664501 15
2.1836164 -1.692102 -0.28571758 15
2.1841736 -1.6919389 -0.48100582 7
2.1952653 -1.6993158 -0.68295133 19
18.949169 -12.533492 6.0698004 22
23.680527 -15.762621 3.483551 23
27.803137 -18.547838 -0.58278418 4
5.7685223 -3.8511369 -0.60256785 1
4.6648669 -3.1118693 -0.88365489 3
4.4604192 -2.9679196 -1.2269379 77
16.392136 -12.635379 5.1439099 30
19.511724 -15.061223 4.3356061 34
2.1822329 -1.6910238 -0.095664501 15
2.1836164 -1.692102 -0.28571758 15
2.1841736 -1.6919389 -0.48100582 7
2.1952653 -1.6993158 -0.68295133 19
18.949169 -12.533492 6.0698004 22
23.680527 -15.762621 3.483551 23
64.388687 -42.931129 4.0539432 1
48.775585 -32.534721 -1.0228065 2
5.7685223 -3.8511369 -0.60256785 1
4.6648669 -3.1118693 -0.88365489 3
4.4604192 -2.9679196 -1.2269379 77
16.280857 -12.640458 5.1227713 26
21.080206 -16.389473 4.6973042 17
2.1704047 -1.6940236 -0.095401451 14
2.1757355 -1.6981858 -0.28545713 15
2.1743698 -1.6965265 -0.48013756 10
2.1759207 -1.696537 -0.67872059 19
18.551561 -12.363912 5.956068 22
17.050707 -11.407057 3.9771781 37
23.555285 -15.798202 3.4732068 30
28.001711 -18.821833 -0.58832538 20
4.6580772 -3.1308854 -0.88443798 4
4.4520564 -2.9848258 -1.2274994 70
16.280857 -12.640458 5.1227713 26
21.080206 -16.389473 4.6973042 17
2.1704047 -1.6940236 -0.095401451 14
2.1757355 -1.6981858 -0.28545713 15
2.1743698 -1.6965265 -0.48013756 10
2.1759207 -1.696537 -0.67872059 19
18.551561 -12.363912 5.956068 22
17.050707 -11.407057 3.9771781 37
23.555285 -15.798202 3.4732068 30
48.779984 -32.784248 -1.0252935 2
5.6992235 -3.8337538 -0.59669656 1
4.6580772 -3.1308854 -0.88443798 4
4.4520564 -2.9848258 -1.2274994 70
16.18121 -12.653879 5.1052566 26
21.094595 -16.519117 4.7133508 23
2.1546519 -1.693876 -0.094963022 14
2.1541479 -1.6934882 -0.2833735 15
2.1510024 -1.6904278 -0.47623047 16
2.1623495 -1.6981348 -0.67630309 19
18.74691 -12.588758 6.0329666 23
16.98229 -11.447309 3.9705057 37
23.419802 -15.826158 3.4613414 22
27.863396 -18.870413 -0.58679825 20
4.6573477 -3.1540403 -0.88639551 3
4.4436297 -3.0017102 -1.228061 62
16.18121 -12.653879 5.1052566 26
21.094595 -16.519117 4.7133508 23
2.1546519 -1.693876 -0.094963022 14
2.1541479 -1.6934882 -0.2833735 15
2.1510024 -1.6904278 -0.47623047 16
2.1623495 -1.6981348 -0.67630309 19
18.74691 -12.588758 6.0329666 23
16.98229 -11.447309 3.9705057 37
23.419802 -15.826158 3.4613414 22
27.579826 -18.678423 -0.58082074 1
5.7208695 -3.8773549 -0.6003933 1
4.6573477 -3.1540403 -0.88639551 3
4.4436297 -3.0017102 -1.228061 62
21.04744 -16.606998 4.7163868 25
2.1327515 -1.6893629 -0.094261542 15
2.1362252 -1.692118 -0.28181079 15
2.1409297 -1.6952465 -0.47536224 17
2.1484971 -1.7000334 -0.67388552 20
18.656639 -12.627613 6.0187502 28
16.895554 -11.479142 3.9600208 26
23.105249 -15.73732 3.4233115 21
27.709394 -18.914646 -0.5850094 36
4.6539187 -3.1766508 -0.88796163 3
4.4325981 -3.0179768 -1.228061 48
21.04744 -16.606998 4.7163868 25
2.1327515 -1.6893629 -0.094261542 15
2.1362212 -1.6921226 -0.28181079 15
2.1406336 -1.6956202 -0.47536224 17
2.1482003 -1.7004085 -0.67388552 20
18.654436 -12.630868 6.0187502 28
16.893551 -11.482091 3.9600208 26
23.102501 -15.741352 3.4233115 21
64.2668 -43.861767 4.0759239 1
48.833565 -33.342472 -1.0315328 1
5.7059393 -3.8992932 -0.6003933 1
4.6533637 -3.1774631 -0.88796163 3
4.4325981 -3.0179768 -1.228061 48
15.402298 -12.223495 4.8866234 25
21.041388 -16.72172 4.728096 29
2.1229331 -1.6936839 -0.09408617 14
2.1225224 -1.6933721 -0.28076896 15
2.1250732 -1.6954119 -0.47319165 17
2.1232724 -1.6927891 -0.66784173 20
18.590279 -12.682303 6.0122881 22
16.873619 -11.554852 3.9647865 24
23.080151 -15.844365 3.4281793 27
27.924091 -19.211555 -0.59103048 45
4.644279 -3.1950846 -0.88835311 4
4.4220366 -3.0334311 -1.228061 40
15.402298 -12.223495 4.8866234 25
21.041388 -16.72172 4.728096 29
2.1229331 -1.6936839 -0.09408617 14
2.1225264 -1.6933676 -0.28076896 15
2.1253691 -1.6950411 -0.47319165 17
2.1235678 -1.6924185 -0.66784173 20
18.592491 -12.679059 6.0122881 22
16.875633 -11.551907 3.9647865 24
23.082916 -15.840336 3.4281793 27
63.989323 -43.98415 4.0675507 1
27.927444 -19.206682 -0.59103048 45
5.7176085 -3.9351215 -0.60300279 1
4.6448369 -3.1942739 -0.88835311 4
4.4220366 -3.0334311 -1.228061 40
15.412855 -12.315388 4.9029307 25
20.945448 -16.759106 4.7189889 28
2.1017127 -1.6882093 -0.093384691 14
2.1091409 -1.6941746 -0.27972716 15
2.1139736 -1.6974597 -0.47188929 17
2.1141574 -1.6964176 -0.66663295 21
18.568262 -12.752944 6.0181036 21
17.223213 -11.873775 4.0558162 21
22.96493 -15.87166 3.4184437 22
27.641655 -19.145504 -0.58631825 59
4.6403117 -3.2138717 -0.88952768 4
4.4199748 -3.0536106 -1.2303071 37
15.412855 -12.315388 4.9029307 25
20.945448 -16.759106 4.7189889 28
2.1017127 -1.6882093 -0.093384691 14
2.1091409 -1.6941746 -0.27972716 15
2.1139736 -1.6974597 -0.47188929 17
2.1141574 -1.6964176 -0.66663295 21
18.568262 -12.752944 6.0181036 21
17.223213 -11.873775 4.0558162 21
22.96493 -15.87166 3.4184437 22
63.945751 -44.267143 4.0740924 1
27.644993 -19.140686 -0.58631825 59
5.7216015 -3.964401 -0.60474241 1
4.640873 -3.213062 -0.88952768 4
4.4205079 -3.052839 -1.2303071 37
15.394344 -12.388883 4.9107819 25
20.727694 -16.703901 4.6829925 28
2.0860889 -1.6876855 -0.092946261 15
2.091609 -1.6921523 -0.27816442 16
2.0927114 -1.6924548 -0.46841633 16
2.0987833 -1.6961702 -0.66361105 20
18.444181 -12.76273 5.9922552 18
16.955873 -11.777072 4.0024376 23
22.88291 -15.933295 3.4144883 6
19.641233 -13.702355 -0.41742128 15
4.6316547 -3.2306528 -0.88991916 4
4.4138265 -3.0710301 -1.2314302 34
15.394344 -12.388883 4.9107819 25
20.727694 -16.703901 4.6829925 28
2.0860889 -1.6876855 -0.092946261 15
2.0916047 -1.6921568 -0.27816442 16
2.092416 -1.69282 -0.46841633 16
2.0984874 -1.6965364 -0.66361105 20
18.441954 -12.765948 5.9922552 18
16.953817 -11.780031 4.0024376 23
22.880129 -15.937287 3.4144883 6
64.813004 -45.219707 4.139905 1
27.91567 -19.487015 -0.59364837 1
5.7083802 -3.987766 -0.60495991 1
4.6305265 -3.2322695 -0.88991916 4
4.4132905 -3.0718005 -1.2314302 34
15.367679 -12.460499 4.9168215 26
20.215214 -16.413538 4.5806413 24
2.0760138 -1.6921659 -0.092770897 15
2.0776749 -1.6935337 -0.27712262 15
2.0804691 -1.6958156 -0.46711397 17
2.0809629 -1.695033 -0.65998477 22
18.612946 -12.985411 6.0633378 20
16.902485 -11.836462 4.0005312 19
24.66383 -17.313889 3.6904342 18
19.522694 -13.736508 -0.41606873 31
4.6287522 -3.2563148 -0.89187676 4
4.4039974 -3.0893524 -1.2319915 29
15.367679 -12.460499 4.9168215 26
20.215214 -16.413538 4.5806413 24
2.0760138 -1.6921659 -0.092770897 15
2.0776749 -1.6935337 -0.27712262 15
2.0804691 -1.6958156 -0.46711397 17
2.0809629 -1.695033 -0.65998477 22
18.612946 -12.985411 6.0633378 20
16.902485 -11.836462 4.0005312 19
24.66383 -17.313889 3.6904342 18
19.370625 -13.624499 1.2393154 1
19.522694 -13.736508 -0.41606873 31
5.7528095 -4.0502019 -0.61126608 1
4.6287522 -3.2563148 -0.89187676 4
4.4039974 -3.0893524 -1.2319915 29
15.480061 -12.64141 4.9669499 23
20.112051 -16.4466 4.5702329 23
2.0585003 -1.6898993 -0.092244782 15
2.0621359 -1.6928949 -0.27582037 15
2.0650163 -1.6952636 -0.46494335 17
2.0694034 -1.6976751 -0.65817159 22
18.676191 -13.12666 6.0988793 17
18.210865 -12.847216 4.321279 1
19.732307 -13.956164 2.9590406 23
19.472588 -13.803125 -0.4160251 34
4.6092949 -3.2667482 -0.8903107 4
4.3951774 -3.1061106 -1.2325531 23
15.480061 -12.64141 4.9669499 23
20.112051 -16.4466 4.5702329 23
2.0585003 -1.6898993 -0.092244782 15
2.0621402 -1.6928904 -0.27582037 15
2.0653119 -1.6949033 -0.46494335 17
2.0696995 -1.6973138 -0.65817159 22
18.678482 -13.123402 6.0988793 17
18.213108 -12.844037 4.321279 1
19.734743 -13.95272 2.9590406 23
19.188822 -13.592001 1.2305491 1
19.474995 -13.799727 -0.4160251 34
5.6621079 -4.0145679 -0.60300279 1
4.6098652 -3.2659435 -0.8903107 4
4.3951774 -3.1061106 -1.2325531 23
15.409944 -12.669566 4.9578905 22
20.002275 -16.467825 4.5576558 20
2.0432498 -1.688765 -0.091806352 15
2.0488441 -1.6933893 -0.27477854 15
2.0520835 -1.6954759 -0.46320689 17
2.0603158 -1.7010819 -0.65696287 21
18.707815 -13.236867 6.1227889 16
16.821611 -11.946882 4.0000548 26
19.627716 -13.974921 2.9499135 35
19.546129 -13.942543 1.2564554 40
19.482038 -13.901974 -0.41715953 30
4.6171093 -3.2941041 -0.89383435 4
4.390811 -3.1249011 -1.2342378 20
15.409944 -12.669566 4.9578905 22
20.002275 -16.467825 4.5576558 20
2.0432498 -1.688765 -0.091806352 15
2.0488441 -1.6933893 -0.27477854 15
2.0520835 -1.6954759 -0.46320689 17
2.0603158 -1.7010819 -0.65696287 21
18.707815 -13.236867 6.1227889 16
16.821611 -11.946882 4.0000548 26
19.627716 -13.974921 2.9499135 35
19.546129 -13.942543 1.2564554 40
19.484459 -13.898578 -0.41715953 30
5.7366757 -4.0944943 -0.61235338 1
4.6176848 -3.2932985 -0.89383435 4
4.3913565 -3.1241345 -1.2342378 20
15.380575 -12.735658 4.9627223 25
19.916237 -16.513975 4.5511503 22
2.0315783 -1.6910962 -0.091543302 15
2.0371838 -1.6957631 -0.27399716 16
2.0328963 -1.6916153 -0.460168 18
2.0450335 -1.7005155 -0.65394098 21
18.663462 -13.30349 6.123435 9
16.985418 -12.152568 4.0491438 19
19.560665 -14.030337 2.9471753 36
19.582502 -14.071859 1.2619507 17
29.324705 -21.069771 -0.62968785 1
4.6001415 -3.3050797 -0.89265978 4
4.3784432 -3.138027 -1.2336762 17
15.380575 -12.735658 4.9627223 25
19.916237 -16.513975 4.5511503 22
2.0315783 -1.6910962 -0.091543302 15
2.0371838 -1.6957631 -0.27399716 16
2.0328963 -1.6916153 -0.460168 18
2.0450335 -1.7005155 -0.65394098 21
20.943048 -14.927703 6.8723865 1
16.985418 -12.152568 4.0491438 19
19.560665 -14.030337 2.9471753 36
19.582502 -14.071859 1.2619507 17
29.321032 -21.074884 -0.62968785 1
5.7964716 -4.1692529 -0.62039918 1
4.5995646 -3.3058829 -0.89265978 4
4.3778954 -3.1387911 -1.2336762 17
15.37329 -12.820337 4.9748015 25
19.705387 -16.455578 4.5160217 23
2.0160832 -1.6901593 -0.091104873 14
2.0198123 -1.6932886 -0.27243447 16
2.0213144 -1.6939615 -0.45886564 17
2.0297797 -1.6998634 -0.65091902 21
18.671846 -13.407989 6.1415291 18
16.980728 -12.239041 4.0581994 21
19.592031 -14.156647 2.9593449 19
29.17642 -21.125803 -0.62816083 3
4.6020045 -3.3320429 -0.8954004 4
4.3767934 -3.1611774 -1.2364839 15
15.37329 -12.820337 4.9748015 25
19.705387 -16.455578 4.5160217 23
21.062263 -17.613451 2.8821111 1
2.0160832 -1.6901593 -0.091104873 14
2.0198123 -1.6932886 -0.27243447 16
2.0213144 -1.6939615 -0.45886564 17
2.0297797 -1.6998634 -0.65091902 21
18.671846 -13.407989 6.1415291 18
16.980728 -12.239041 4.0581994 21
19.592031 -14.156647 2.9593449 19
29.17642 -21.125803 -0.62816083 3
5.537744 -4.0127983 -0.59408712 1
4.6020045 -3.3320429 -0.8954004 4
4.3767934 -3.1611774 -1.2364839 15
15.39493 -12.934331 4.997148 25
19.358553 -16.286787 4.4501004 24
2.0041449 -1.6927053 -0.090841822 15
2.0097907 -1.6974742 -0.27191356 16
2.0000329 -1.688664 -0.45539269 18
2.0142593 -1.6994773 -0.64789712 21
19.344627 -13.998626 6.3799782 31
16.796736 -12.200266 4.0248375 28
29.003881 -21.163363 -0.62611014 6
4.581778 -3.3430727 -0.89383435 4
4.3691192 -3.1800616 -1.2376069 14
15.39493 -12.934331 4.997148 25
19.358553 -16.286787 4.4501004 24
20.976648 -17.672909 2.8792365 1
2.0041449 -1.6927053 -0.090841822 15
2.0097907 -1.6974742 -0.27191356 16
2.0000329 -1.688664 -0.45539269 18
2.0142593 -1.6994773 -0.64789712 21
19.344627 -13.998626 6.3799782 31
16.796736 -12.200266 4.0248375 28
29.003881 -21.163363 -0.62611014 6
5.4807401 -4.0022526 -0.58952057 1
4.581778 -3.3430727 -0.89383435 4
4.3691192 -3.1800616 -1.2376069 14
15.358946 -12.995825 5.0001678 24
19.307219 -16.359035 4.4514017 22
1.9925112 -1.6948388 -0.090578765 16
1.9905872 -1.693213 -0.27009037 16
1.9903723 -1.6924483 -0.45452443 18
1.9990656 -1.6986514 -0.64487523 22
18.579327 -13.5441 6.1428213 4
16.754047 -12.258824 4.0248375 18
4.5939693 -3.3765745 -0.89853257 4
4.3737187 -3.2068038 -1.242099 10
15.358946 -12.995825 5.0001678 24
19.307219 -16.359035 4.4514017 22
20.948957 -17.774975 2.8839405 1
1.9925112 -1.6948388 -0.090578765 16
1.9905872 -1.693213 -0.27009037 16
1.9903723 -1.6924483 -0.45452443 18
1.9990656 -1.6986514 -0.64487523 22
21.505112 -15.676055 7.1114817 1
16.754047 -12.258824 4.0248375 18
28.937885 -21.270395 -0.62628466 16
5.4908228 -4.039053 -0.59213006 1
4.5939693 -3.3765745 -0.89853257 4
4.3737187 -3.2068038 -1.242099 10
15.565098 -13.259033 5.0817022 23
16.086975 -13.722865 3.7184644 13
1.9773846 -1.6933187 -0.090140335 15
1.9792918 -1.6949574 -0.26930901 16
1.9772627 -1.6926409 -0.45278794 18
1.9860433 -1.6989694 -0.64245772 22
18.431114 -13.529916 6.1085725 22
21.135799 -15.571289 5.091455 21
20.33304 -15.018401 3.095036 1
2.3037708 -1.7103429 -0.049477972 6
4.5767894 -3.3873882 -0.89735806 4
4.3669825 -3.2241802 -1.2432221 10
15.565098 -13.259033 5.0817022 23
19.40835 -16.55558 4.4873981 1
20.546982 -17.545265 2.8361185 1
1.9773846 -1.6933187 -0.090140335 15
1.9792918 -1.6949574 -0.26930901 16
1.9772627 -1.6926409 -0.45278794 18
1.9860433 -1.6989694 -0.64245772 22
19.879755 -14.59288 6.5893488 1
21.135799 -15.571289 5.091455 21
20.33304 -15.018401 3.095036 1
2.304065 -1.7099452 -0.049477972 6
5.736434 -4.2472959 -0.62018174 5
4.5773807 -3.3865893 -0.89735806 4
4.3675451 -3.223418 -1.2432221 10
15.478209 -13.278538 5.0684152 21
16.055786 -13.793374 3.7223678 6
1.960102 -1.6904293 -0.089614227 15
1.9639425 -1.6937443 -0.26800674 17
1.9657443 -1.694714 -0.4514856 18
1.9653878 -1.6932366 -0.63762265 23
19.820929 -14.656443 6.5867639 25
21.034014 -15.609879 5.0800171 19
20.240671 -15.059668 3.0889513 1
2.3060999 -1.7239515 -0.049652498 6
2.3180697 -1.7322481 -0.24963836 1
4.585341 -3.4172852 -0.90127313 4
4.3640919 -3.2444513 -1.2454684 9
15.478209 -13.278538 5.0684152 21
19.690367 -16.915195 4.56633 10
19.459007 -16.740082 2.694221 1
1.960102 -1.6904293 -0.089614227 15
1.9639425 -1.6937443 -0.26800674 17
1.9657443 -1.694714 -0.4514856 18
1.9653878 -1.6932366 -0.63762265 23
19.820929 -14.656443 6.5867639 25
21.034014 -15.609879 5.0800171 19
24.824167 -18.468639 3.7893124 1
2.2717328 -1.6989543 -0.048910763 9
5.7587738 -4.2965651 -0.62431335 3
4.5847445 -3.4180861 -0.90127313 4
4.3635254 -3.2452128 -1.2454684 9
15.400068 -13.309801 5.0587516 22
15.941819 -13.797353 3.7076221 6
19.376852 -16.793379 2.6913466 32
1.9425693 -1.6877792 -0.08908812 16
1.9483303 -1.6927848 -0.26670447 16
1.9483593 -1.6922297 -0.44888088 18
1.9536685 -1.6956626 -0.63580948 22
16.133593 -12.02265 5.3744841 5
20.817446 -15.567845 5.0414128 17
2.2774825 -1.716276 -0.04917255 9
2.2715685 -1.7112287 -0.24528927 6
4.6077414 -3.4615338 -0.90832049 1
4.3730597 -3.2772365 -1.2516451 6
15.400068 -13.309801 5.0587516 22
19.710157 -17.058136 4.585412 9
19.376852 -16.793379 2.6913466 32
1.9425693 -1.6877792 -0.08908812 16
1.948326 -1.6927891 -0.26670447 16
1.9480639 -1.6925697 -0.44888088 18
1.9533726 -1.6960037 -0.63580948 22
19.952351 -14.872407 6.6494455 4
20.814728 -15.571478 5.0414128 17
21.580416 -16.185186 3.3031366 1
2.2771828 -1.7166736 -0.04917255 9
4.6071377 -3.462338 -0.90832049 1
4.3730597 -3.2772365 -1.2516451 6
16.12998 -12.112144 5.3880544 6
20.913143 -15.759215 5.0785871 17
2.2691836 -1.7231036 -0.049128916 9
2.2255585 -1.6894898 -0.24094017 10
2.2370818 -1.696395 -0.43967411 8
19.893265 -14.931244 6.646215 3
20.915894 -15.755565 5.0785871 17
2.269484 -1.7227074 -0.049128916 9
2.2258534 -1.6891016 -0.24094017 10
2.2373779 -1.6960045 -0.43967411 8
16.068727 -12.145289 5.3802996 9
20.988688 -15.919734 5.1090894 20
2.267736 -1.7332535 -0.049216181 9
2.2182584 -1.6949645 -0.24072272 14
2.2317414 -1.7034146 -0.43967411 16
2.2372279 -1.7033327 -0.64014149 9
19.913013 -15.049537 6.6694779 2
20.988688 -15.919734 5.1090894 20
2.267736 -1.7332535 -0.049216181 9
2.2182584 -1.6949645 -0.24072272 14
2.2317414 -1.7034146 -0.43967411 16
2.2372279 -1.7033327 -0.64014149 9
15.895548 -12.101858 5.3363581 23
20.827669 -15.912466 5.083353 22
2.2696042 -1.7472454 -0.049390707 9
2.2024479 -1.6951184 -0.23963544 14
2.2061825 -1.696177 -0.43575895 14
2.2235265 -1.7052145 -0.63789541 15
15.895548 -12.101858 5.3363581 23
20.827669 -15.912466 5.083353 22
2.2696042 -1.7472454 -0.049390707 9
2.2024479 -1.6951184 -0.23963544 14
2.2061825 -1.696177 -0.43575895 14
2.2235265 -1.7052145 -0.63789541 15
15.801256 -12.121829 5.3195567 32
2.2651625 -1.7570812 -0.049434341 9
2.1883378 -1.6970873 -0.23876561 14
2.1804061 -1.6891624 -0.43184376 12
2.2018206 -1.7014616 -0.63340318 15
15.79914 -12.124587 5.3195567 32
2.2648559 -1.7574766 -0.049434341 9
2.1880414 -1.6974692 -0.23876561 14
2.1801114 -1.689543 -0.43184376 12
2.2018206 -1.7014616 -0.63340318 15
15.741431 -12.16785 5.3143868 30
19.432388 -15.073689 4.7692776 5
2.2646227 -1.7699801 -0.049565233 9
2.1703131 -1.6959151 -0.2374609 14
2.166405 -1.6910782 -0.43027768 8
2.1804686 -1.6971922 -0.62891096 14
15.743555 -12.165103 5.3143868 30
21.654016 -16.790289 5.3145013 15
2.2649317 -1.7695848 -0.049565233 9
2.170609 -1.6955363 -0.2374609 14
2.1666999 -1.6907001 -0.43027768 8
2.1804686 -1.6971922 -0.62891096 14
15.74507 -12.249858 5.3286033 21
19.4275 -15.167881 4.7797627 34
2.2629855 -1.7801707 -0.049652498 8
2.1610544 -1.6996523 -0.23702598 14
2.1533051 -1.6917871 -0.42871162 13
2.1652288 -1.6969162 -0.62610328 14
15.74507 -12.249858 5.3286033 21
19.4275 -15.167881 4.7797627 34
21.770195 -17.039019 3.3852813 1
2.2632918 -1.77978 -0.049652498 8
2.161351 -1.699275 -0.23702598 14
2.1536002 -1.6914114 -0.42871162 13
2.165525 -1.6965382 -0.62610328 14
15.671794 -12.280917 5.318264 28
19.258671 -15.144603 4.7511668 21
2.259027 -1.7892181 -0.049696125 8
2.1456311 -1.6990945 -0.2359387 15
2.1457438 -1.6973897 -0.42832008 15
2.1500149 -1.6965574 -0.62329566 15
15.671794 -12.280917 5.318264 28
21.471699 -16.884209 5.2978206 1
21.447477 -16.907562 3.344209 1
2.2587192 -1.789608 -0.049696125 8
2.1453342 -1.699469 -0.2359387 15
2.1454475 -1.697764 -0.42832008 15
2.1497188 -1.6969328 -0.62329566 15
15.56626 -12.286186 5.2969394 28
19.163359 -15.178221 4.7406821 24
2.2465897 -1.7928134 -0.049565233 8
2.1237941 -1.6945469 -0.23419906 15
2.1298409 -1.6975641 -0.42636248 15
2.1342351 -1.6968621 -0.62048805 15
15.564116 -12.288903 5.2969394 28
21.298088 -16.874418 5.2701778 1
21.233782 -16.8657 3.3204782 1
2.2462769 -1.7932056 -0.049565233 8
2.123498 -1.6949176 -0.23419906 15
2.1295447 -1.6979358 -0.42636248 15
2.1342351 -1.6968621 -0.62048805 15
15.587023 -12.399979 5.3202028 26
19.1222 -15.265469 4.7449713 22
2.2435896 -1.8045537 -0.049652498 8
2.1114419 -1.6980168 -0.2335467 15
2.115597 -1.6995571 -0.42479643 15
2.1241937 -1.7016335 -0.61936498 16
15.587023 -12.399979 5.3202028 26
19.1222 -15.265469 4.7449713 22
21.239641 -16.997669 3.3311267 1
2.2435896 -1.8045537 -0.049652498 8
2.1114419 -1.6980168 -0.2335467 15
2.115597 -1.6995571 -0.42479643 15
2.1241937 -1.7016335 -0.61936498 16
15.585113 -12.487522 5.3344193 26
19.024801 -15.296763 4.7340093 19
21.442965 -17.283443 3.3725033 35
2.2294979 -1.806093 -0.049477972 8
2.0938737 -1.6959908 -0.23224196 14
2.1038849 -1.702282 -0.42362189 15
2.1049511 -1.6983525 -0.61543429 16
15.587293 -12.484802 5.3344193 26
20.73974 -16.669161 5.1605616 1
21.44598 -17.279699 3.3725033 35
2.2298133 -1.8057038 -0.049477972 8
2.0941696 -1.6956253 -0.23224196 14
2.1041822 -1.7019148 -0.42362189 15
2.1049511 -1.6983525 -0.61543429 16
15.479996 -12.483378 5.3118019 20
20.720602 -16.767168 5.1696167 25
21.299904 -17.278828 3.3585083 35
2.2276926 -1.816241 -0.049565233 8
2.0808032 -1.696279 -0.23137213 15
2.0870233 -1.6995478 -0.42127281 16
2.0955203 -1.7022579 -0.61431122 16
15.479996 -12.483378 5.3118019 20
20.720602 -16.767168 5.1696167 25
21.299904 -17.278828 3.3585083 35
2.2280052 -1.8158563 -0.049565233 8
2.081099 -1.6959158 -0.23137213 15
2.0873201 -1.6991836 -0.42127281 16
2.0958176 -1.7018921 -0.61431122 16
15.438201 -12.538858 5.3124485 23
20.694294 -16.865746 5.1777191 25
21.21063 -17.329527 3.3539445 27
2.2197185 -1.8220396 -0.049521599 8
2.0655277 -1.6952862 -0.23028488 15
2.0718155 -1.6986481 -0.41931522 16
2.0785341 -1.6999635 -0.61094207 15
15.438201 -12.538858 5.3124485 23
20.694294 -16.865746 5.1777191 25
21.21063 -17.329527 3.3539445 27
2.2194049 -1.8224229 -0.049521599 8
2.0652318 -1.6956466 -0.23028488 15
2.0715191 -1.6990095 -0.41931522 16
2.0782373 -1.7003262 -0.61094207 15
15.455699 -12.647345 5.3344193 4
20.734774 -17.025562 5.203455 24
21.229364 -17.474949 3.367027 25
2.18764 -1.8098713 -0.048954394 8
2.0570812 -1.7016203 -0.23006742 15
2.0519352 -1.6956036 -0.41657457 16
2.064461 -1.7017467 -0.60869598 16
19.440331 -15.912068 6.7127738 1
20.731802 -17.029182 5.203455 24
