# .PCD v0.7 - Point Cloud Data file format
VERSION 0.7
FIELDS x y z intensity
SIZE 4 4 4 4
TYPE F F F F
COUNT 1 1 1 1
WIDTH 1455
HEIGHT 1
VIEWPOINT 0 0 0 1 0 0 0
POINTS 1455
DATA ascii
27.620602 18.485369 2.9046831 32
7.6921601 7.4089389 1.3051907 23
7.6465154 7.3521137 0.55410689 42
20.052921 13.411024 -1.2666818 24
7.9056873 7.5988646 -0.19079997 34
11.124162 7.4348969 -1.636206 19
8.078496 7.7678013 -0.97550327 31
7.1629872 4.7863226 -1.6646769 13
7.9769416 7.6780858 -1.7500831 30
5.120645 3.4183266 -1.6391981 17
5.3396721 5.1500401 -1.7019902 16
8.2928839 4.7311807 2.0202808 24
7.911109 6.6284471 2.5607817 24
22.082966 12.61092 3.5690937 22
7.1496568 5.9817238 1.6358813 7
34.400322 19.658222 2.7612021 41
7.210536 6.0241432 0.98387408 8
32.713615 18.702141 0 25
25.485943 21.284243 1.1583142 1
15.732331 8.9819822 -1.2611829 5
17.929333 14.967341 -0.81845319 5
10.278546 5.8604455 -1.6537832 5
12.252631 10.227595 -1.6682051 7
6.7531528 3.8411589 -1.6454127 14
7.2663522 6.064322 -1.6626825 13
4.9791842 2.821979 -1.630092 14
5.2200351 4.3588295 -1.6856204 15
8.0931101 5.4157586 2.236563 28
19.805538 13.255618 3.7605903 8
26.264149 25.365469 7.0840955 20
27.620602 18.485369 2.9046831 32
7.6934533 7.4075966 1.3051907 23
7.6477981 7.3507791 0.55410689 42
20.052921 13.411024 -1.2666818 24
7.9070134 7.5974841 -0.19079997 34
11.124162 7.4348969 -1.636206 19
8.0798512 7.7663913 -0.97550327 31
7.1638222 4.7850723 -1.6646769 13
7.9782825 7.6766934 -1.7500831 30
5.121242 3.4174328 -1.6391981 17
5.3396721 5.1500401 -1.7019902 16
8.4477234 4.7804294 2.0540388 22
7.8745303 6.5511317 2.541455 14
22.098846 12.517903 3.5645707 24
7.161025 5.9488621 1.6337129 6
34.438351 19.520807 2.7587669 39
7.227694 5.9957614 0.98335147 8
32.648209 18.513859 0 22
7.2804255 6.035243 0.32901499 8
15.735372 8.9110403 -1.2589214 5
12.645877 10.481259 -0.57521462 1
10.266608 5.8062601 -1.6485773 5
12.313142 10.205395 -1.6715912 7
6.7665195 3.8175626 -1.6454127 16
7.2798948 6.0326352 -1.660946 13
4.9869084 2.803405 -1.6294034 13
5.2333512 4.3390322 -1.685016 15
8.1018171 5.3807387 2.2337554 18
19.874315 13.20143 3.7648828 13
26.294085 25.217567 7.068368 25
27.649693 18.365417 2.900979 30
7.8680644 7.5230932 1.3304427 22
7.6535535 7.305069 0.55266768 41
20.07049 13.321618 -1.2648439 19
7.9081779 7.5456696 -0.19018914 32
11.150046 7.3960204 -1.636206 24
8.0798988 7.7123346 -0.9722414 35
7.1722984 4.7546144 -1.6627722 12
7.9996762 7.6436768 -1.7489084 32
5.1331396 3.3995354 -1.6391981 17
5.3558583 5.129683 -1.7014288 16
8.4477234 4.7804294 2.0540388 22
7.8745303 6.5511317 2.541455 14
22.098846 12.517903 3.5645707 24
7.161025 5.9488621 1.6337129 6
34.438351 19.520807 2.7587669 39
7.227694 5.9957614 0.98335147 8
32.648209 18.513859 0 22
7.2804255 6.035243 0.32901499 8
15.733817 8.9137859 -1.2589214 5
17.941078 14.87118 -0.81661183 5
10.266608 5.8062601 -1.6485773 5
12.313138 10.2054 -1.6715912 7
6.7665195 3.8175626 -1.6454127 16
7.2788424 6.0339055 -1.660946 13
4.9869084 2.803405 -1.6294034 13
5.2325935 4.3399458 -1.685016 15
8.1018171 5.3807387 2.2337554 18
19.874315 13.20143 3.7648828 13
26.289682 25.222157 7.068368 25
27.649693 18.365417 2.900979 30
7.8667521 7.524466 1.3304427 22
7.6522784 7.3064046 0.55266768 41
20.07049 13.321618 -1.2648439 19
7.9068604 7.54705 -0.19018914 32
11.150046 7.3960204 -1.636206 24
8.0785532 7.7137446 -0.9722414 35
7.1714683 4.7558661 -1.6627722 12
7.998342 7.6450729 -1.7489084 32
5.1325464 3.4004312 -1.6391981 17
5.3558583 5.129683 -1.7014288 16
8.4464655 4.7428179 2.0498838 21
7.8307691 6.4708829 2.5203166 19
22.23736 12.499121 3.5802276 22
7.2205863 5.9579988 1.6428204 5
34.470291 19.388163 2.7561576 38
7.2532926 5.9765048 0.98413551 8
32.691994 18.395687 0 31
7.2791862 5.9935932 0.32805523 9
15.695889 8.8236923 -1.2535288 5
7.3303342 6.0335789 -0.331976 3
10.27285 5.7649179 -1.6464949 5
12.306605 10.131319 -1.6661216 5
6.7727385 3.791523 -1.643852 16
7.2722068 5.9878206 -1.6548684 13
4.9940777 2.7856829 -1.6287147 14
5.250701 4.3256559 -1.6862248 16
8.1318207 5.3618865 2.2371247 17
19.761309 13.032145 3.7352262 12
26.298573 25.063717 7.0483508 26
27.654306 18.236612 2.8950958 31
7.9294219 7.5342474 1.3368317 6
7.6674118 7.2723942 0.55201346 39
20.049931 13.212407 -1.2607744 18
7.8774495 7.4691696 -0.18888019 28
11.147568 7.3412652 -1.6322509 27
8.0697699 7.6543341 -0.96810979 38
7.1974502 4.7388039 -1.6651529 13
8.0290203 7.6236105 -1.7500831 34
5.1417766 3.3820655 -1.6385514 16
5.3746033 5.113575 -1.7019902 15
8.4464655 4.7428179 2.0498838 21
7.8307691 6.4708829 2.5203166 19
22.23736 12.499121 3.5802276 22
7.2205863 5.9579988 1.6428204 5
34.470291 19.388163 2.7561576 38
7.2522492 5.9777718 0.98413551 8
32.691994 18.395687 0 31
7.2791862 5.9935932 0.32805523 9
15.695889 8.8236923 -1.2535288 5
18.04237 14.854484 -0.81897938 1
10.271843 5.7667112 -1.6464949 5
12.306605 10.131319 -1.6661216 5
6.7720771 3.7927048 -1.643852 16
7.2722068 5.9878206 -1.6548684 13
4.9935913 2.7865546 -1.6287147 14
5.250701 4.3256559 -1.6862248 16
8.1308842 5.3633056 2.2371247 17
19.759033 13.035594 3.7352262 12
26.298573 25.063717 7.0483508 26
27.651123 18.241438 2.8950958 31
7.9294219 7.5342474 1.3368317 6
7.6674118 7.2723942 0.55201346 39
20.047623 13.215907 -1.2607744 18
7.8761492 7.4705396 -0.18888019 28
11.146286 7.3432117 -1.6322509 27
8.0684328 7.6557426 -0.96810979 38
7.1974502 4.7388039 -1.6651529 13
8.027689 7.6250119 -1.7500831 34
5.1411862 3.3829632 -1.6385514 16
5.3737111 5.1145129 -1.7019902 15
8.4993 4.7335176 2.058713 22
7.8364329 6.429656 2.5148809 35
22.456022 12.519039 3.6084104 19
7.2565732 5.9452443 1.6462899 5
34.487659 19.239779 2.7521563 37
7.2807665 5.9587207 0.9851808 8
32.749458 18.277802 0 30
7.2826576 5.9539108 0.32727 9
15.728774 8.7700634 -1.2537028 5
7.3513508 6.0079546 -0.331976 8
10.278928 5.7235975 -1.6444124 5
12.284148 10.041085 -1.658308 4
6.7809987 3.7666705 -1.6428117 15
7.2778187 5.9499292 -1.6513954 10
4.9990807 2.7667823 -1.6273373 14
5.2638907 4.3057647 -1.6856204 16
8.0985947 5.3015423 2.2230866 21
19.699047 12.897563 3.7153246 17
26.348475 24.936337 7.038342 28
27.67712 18.120253 2.8911741 30
7.9195905 7.4724483 1.3307469 34
28.003387 18.326857 0.58356482 59
7.718183 7.2695603 0.55384523 28
20.060204 13.123981 -1.258674 18
7.8712578 7.4138522 -0.18813846 34
11.153157 7.2920399 -1.6295127 26
8.0787992 7.6121535 -0.96615273 39
7.205729 4.7082834 -1.6632484 13
8.0596428 7.6020284 -1.7512577 34
5.1549859 3.3663163 -1.6391981 16
5.3844533 5.089026 -1.6997441 14
8.4993 4.7335176 2.058713 22
7.8364329 6.429656 2.5148809 35
22.456022 12.519039 3.6084104 19
7.2565732 5.9452443 1.6462899 5
34.487659 19.239779 2.7521563 37
7.2818065 5.9574494 0.9851808 8
32.749458 18.277802 0 30
7.2826576 5.9539108 0.32727 9
15.728774 8.7700634 -1.2537028 5
7.3513508 6.0079546 -0.331976 8
10.279927 5.7218037 -1.6444124 5
12.284148 10.041085 -1.658308 4
6.7816563 3.765487 -1.6428117 15
7.2778187 5.9499292 -1.6513954 10
4.9995637 2.7659099 -1.6273373 14
5.2638907 4.3057647 -1.6856204 16
8.0995197 5.3001289 2.2230866 21
19.701298 12.894125 3.7153246 17
26.348475 24.936337 7.038342 28
27.680281 18.115421 2.8911741 30
7.9195905 7.4724483 1.3307469 34
28.006588 18.321968 0.58356482 59
7.718183 7.2695603 0.55384523 28
20.062492 13.120479 -1.258674 18
7.8725476 7.4124832 -0.18813846 34
11.154429 7.2900934 -1.6295127 26
8.0801287 7.610743 -0.96615273 39
7.205729 4.7082834 -1.6632484 13
8.0609703 7.6006217 -1.7512577 34
5.1555734 3.3654165 -1.6391981 16
5.3853412 5.0880857 -1.6997441 14
8.492219 4.690824 2.053 26
7.8249793 6.3746762 2.5040097 19
22.560253 12.47411 3.6181524 14
7.3402991 5.9711633 1.6606019 7
34.513149 19.096344 2.7488511 38
7.3392177 5.9617882 0.99014586 3
26.307751 14.563354 0 4
7.3208518 5.9426289 0.32805523 9
15.687262 8.6752958 -1.2479622 5
7.3257232 5.9444642 -0.32987154 7
10.275991 5.6727324 -1.6405947 5
7.3812137 5.9895039 -0.99206775 2
6.7926164 3.7406132 -1.6422914 14
7.281343 5.9105201 -1.6474884 12
5.0134034 2.7507501 -1.6287147 14
5.2807713 4.2888947 -1.6862248 17
8.1241007 5.2758036 2.224771 22
19.750328 12.827967 3.7161047 12
26.362045 24.775293 7.0188022 28
27.718281 18.002411 2.8885591 28
7.9130449 7.4142051 1.3252705 38
28.034733 18.200962 0.5828231 81
7.7580934 7.2562246 0.55489194 32
20.060005 13.019112 -1.2556547 18
7.8855977 7.3730021 -0.18783304 36
11.171481 7.2457128 -1.6282958 28
8.0975542 7.5739813 -0.96506536 46
7.2138824 4.6777625 -1.6613437 13
8.083848 7.5690603 -1.7504746 36
5.1693158 3.3487117 -1.6398445 17
5.3995185 5.0659213 -1.6986212 14
8.492219 4.690824 2.053 26
7.8249793 6.3746762 2.5040097 19
27.948921 15.452498 4.4834609 1
7.3402991 5.9711633 1.6606019 7
34.513149 19.096344 2.7488511 38
26.857916 21.824207 3.6336708 1
32.791187 18.15127 0 1
7.3208518 5.9426289 0.32805523 9
15.688774 8.6725569 -1.2479622 5
7.3257232 5.9444642 -0.32987154 7
10.275991 5.6727324 -1.6405947 5
7.3812175 5.9894991 -0.99206775 2
6.7926164 3.7406132 -1.6422914 14
7.2823739 5.9092493 -1.6474884 12
5.0134034 2.7507501 -1.6287147 14
5.2815199 4.2879725 -1.6862248 17
8.1241007 5.2758036 2.224771 22
19.750328 12.827967 3.7161047 12
26.366367 24.770693 7.0188022 28
27.718281 18.002411 2.8885591 28
7.9143381 7.4128237 1.3252705 38
28.034733 18.200962 0.5828231 81
7.7593598 7.2548704 0.55489194 32
20.060005 13.019112 -1.2556547 18
7.8868842 7.3716254 -0.18783304 36
11.171481 7.2457128 -1.6282958 28
8.098877 7.5725679 -0.96506536 46
7.2146983 4.6765037 -1.6613437 13
8.0851688 7.5676489 -1.7504746 36
5.1699004 3.3478096 -1.6398445 17
5.3995185 5.0659213 -1.6986212 14
8.5822992 4.6995707 2.070658 25
7.8803554 6.3718896 2.5142767 20
34.53043 18.940939 2.7446764 39
26.929983 21.719378 3.6326253 28
32.706261 17.94799 0 34
7.3562002 5.926733 0.32866597 6
15.685458 8.5958271 -1.2451789 5
7.3455167 5.916007 -0.32978389 8
10.281508 5.6267166 -1.6381652 5
7.3915033 5.9530449 -0.99050498 8
6.7933989 3.7086687 -1.6391703 14
7.2809777 5.8639817 -1.6422788 13
5.0171161 2.7289164 -1.6266487 14
5.3009772 4.2716317 -1.6874336 17
8.143384 5.2459917 2.224771 30
8.5600471 8.0067854 3.1269844 4
19.803438 12.759503 3.7172754 12
26.38699 24.608599 7.0002146 28
27.706615 17.850794 2.8804972 25
7.9287391 7.3719339 1.3231409 37
28.143284 18.125151 0.58369571 6
7.8133349 7.2518687 0.55685455 29
20.078196 12.926581 -1.2538167 16
7.9028602 7.3324642 -0.18757124 38
11.187528 7.1980062 -1.6267745 28
8.1174526 7.5343575 -0.96397811 41
7.2297263 4.6487017 -1.6608676 13
8.1381664 7.5615044 -1.7559558 38
5.1699433 3.3210106 -1.6359649 16
5.4162683 5.0444355 -1.6980596 14
8.5822992 4.6995707 2.070658 25
7.8803554 6.3718896 2.5142767 20
34.543549 18.948132 2.7457201 39
26.929983 21.719378 3.6326253 28
32.706261 17.94799 0 34
7.3562002 5.926733 0.32866597 6
15.685458 8.5958271 -1.2451789 5
7.3455167 5.916007 -0.32978389 8
10.281508 5.6267166 -1.6381652 5
7.3915033 5.9530449 -0.99050498 8
6.7933989 3.7086687 -1.6391703 14
7.2809777 5.8639817 -1.6422788 13
5.0171161 2.7289164 -1.6266487 14
5.3009772 4.2716317 -1.6874336 17
8.143384 5.2459917 2.224771 30
26.411264 24.717508 9.6698065 1
19.803438 12.759503 3.7172754 12
26.38699 24.608599 7.0002146 28
27.706615 17.850794 2.8804972 25
7.9287391 7.3719339 1.3231409 37
28.143284 18.125151 0.58369571 6
7.8133349 7.2518687 0.55685455 29
20.078196 12.926581 -1.2538167 16
7.9028602 7.3324642 -0.18757124 38
11.187528 7.1980062 -1.6267745 28
8.1174526 7.5343575 -0.96397811 41
7.2297263 4.6487017 -1.6608676 13
8.1381664 7.5615044 -1.7559558 38
5.1699433 3.3210106 -1.6359649 16
5.4162683 5.0444355 -1.6980596 14
8.6945553 4.723577 2.0940289 25
7.9146805 6.356359 2.5185046 18
27.849491 15.144671 4.4504075 18
27.151314 14.777381 2.153748 22
26.959169 21.595757 3.6268761 27
32.732658 17.821507 0 28
15.678815 8.5247126 -1.2423956 5
7.3826504 5.9056659 -0.33057305 5
10.276173 5.5796046 -1.6343474 5
7.4014978 5.9207335 -0.98920274 8
6.8013582 3.6837938 -1.6381298 15
7.2869277 5.8290362 -1.63924 10
5.0261378 2.7122641 -1.6266487 14
5.3037524 4.2449303 -1.6838073 17
8.1792088 5.2307682 2.2298248 22
7.5289607 6.9948926 2.7405539 8
19.912212 12.736337 3.7297626 17
8.1920195 7.5849428 2.1613545 3
27.725794 17.733324 2.8763573 25
7.9549642 7.3472853 1.3234452 40
28.557047 18.257912 0.59102571 6
7.8575215 7.2445426 0.55829376 30
20.072569 12.829009 -1.2507974 17
7.9381557 7.3163857 -0.18783304 37
11.207153 7.1581969 -1.626166 21
8.138732 7.5040202 -0.96354318 41
7.2409644 4.6220622 -1.6599152 13
8.1378031 7.5110197 -1.7504746 35
5.1829648 3.3051465 -1.6366115 16
5.4383273 5.0314126 -1.6997441 16
8.6945553 4.723577 2.0940289 25
7.9146805 6.356359 2.5185046 18
27.849491 15.144671 4.4504075 18
34.50761 18.779842 2.7378922 1
26.955402 21.60046 3.6268761 27
32.732658 17.821507 0 28
15.677327 8.5274496 -1.2423956 5
7.3826504 5.9056659 -0.33057305 5
10.275198 5.5813975 -1.6343474 5
7.4014945 5.9207387 -0.98920274 8
6.8007154 3.6849809 -1.6381298 15
7.2859097 5.8303075 -1.63924 10
5.0256639 2.7131412 -1.6266487 14
5.3030114 4.2458563 -1.6838073 17
8.1782951 5.2321959 2.2298248 22
26.471102 24.61796 9.6633444 6
19.909988 12.739811 3.7297626 17
26.429977 24.493883 6.9911599 1
27.722696 17.738161 2.8763573 25
7.9536815 7.3486733 1.3234452 40
28.553862 18.262896 0.59102571 6
7.8562579 7.2459145 0.55829376 30
20.070328 12.832514 -1.2507974 17
7.935605 7.3191514 -0.18783304 37
11.205904 7.1601529 -1.626166 21
8.1361122 7.5068603 -0.96354318 41
7.2401571 4.6233253 -1.6599152 13
8.1351805 7.5138597 -1.7504746 35
5.1818104 3.3069556 -1.6366115 16
5.437449 5.032362 -1.6997441 16
8.7325249 4.7047882 2.0992224 24
7.9614735 6.3483601 2.526356 23
27.664658 14.91931 4.4124827 16
27.200535 14.68133 2.1535742 18
26.966433 21.455149 3.6182525 28
32.675873 17.643011 0 26
15.608212 8.4194164 -1.2345676 5
7.4188685 5.8922935 -0.33127451 3
10.285899 5.5408034 -1.6329591 5
7.4143291 5.888679 -0.98816091 8
6.8135366 3.6612196 -1.6381298 14
7.277308 5.7818604 -1.6327283 14
5.0245066 2.6899185 -1.6232053 14
5.3196988 4.2288294 -1.6844116 17
8.2294197 5.2245016 2.2388091 19
7.4314833 6.8584547 2.6966119 24
19.918898 12.647736 3.7231288 12
8.1882372 7.5311422 2.153729 20
27.790752 17.645287 2.8770111 22
7.9774566 7.3191867 1.3231409 41
28.982555 18.394825 0.59857392 85
7.9367137 7.2690558 0.56221896 21
20.07073 12.734292 -1.2480407 16
7.9666328 7.296473 -0.18796393 36
11.214063 7.1103649 -1.6237322 12
8.1769514 7.4918804 -0.96528286 58
7.2541776 4.5967112 -1.659439 13
8.2013779 7.5221515 -1.759088 35
5.1831193 3.2823901 -1.6333784 16
5.4513974 5.0100522 -1.6986212 16
8.7325249 4.7047882 2.0992224 24
7.9614735 6.3483601 2.526356 23
27.664658 14.91931 4.4124827 16
34.588318 18.667561 2.7391098 1
26.970177 21.450439 3.6182525 28
32.675873 17.643011 0 26
15.608212 8.4194164 -1.2345676 5
7.4188685 5.8922935 -0.33127451 3
10.286865 5.5390077 -1.6329591 5
7.4143291 5.888679 -0.98816091 8
6.8141756 3.6600304 -1.6381298 14
7.277308 5.7818604 -1.6327283 14
5.0249758 2.6890414 -1.6232053 14
5.3196988 4.2288294 -1.6844116 17
8.2303314 5.2230649 2.2388091 19
7.4314833 6.8584547 2.6966119 24
19.921106 12.644259 3.7231288 12
8.1882372 7.5311422 2.153729 20
27.793831 17.640438 2.8770111 22
7.9774566 7.3191867 1.3231409 41
28.985765 18.389765 0.59857392 85
7.9367137 7.2690558 0.56221896 21
20.072952 12.730789 -1.2480407 16
7.9679031 7.2950873 -0.18796393 36
11.215303 7.1084085 -1.6237322 12
8.1782598 7.4904537 -0.96528286 58
7.2541776 4.5967112 -1.659439 13
8.2026911 7.52072 -1.759088 35
5.1836925 3.2814853 -1.6333784 16
5.4522715 5.0091009 -1.6986212 16
8.6820145 4.6385822 2.0831225 27
7.9094176 6.2617884 2.5028017 25
27.910873 14.926535 4.443449 22
27.240622 14.58041 2.1527045 20
27.003916 21.323809 3.6127651 28
27.357094 14.648859 0 16
15.648502 8.3707609 -1.2354374 5
18.694731 14.745729 -0.83441192 24
10.284294 5.4914131 -1.6294886 5
7.448504 5.8735423 -0.9899841 7
6.8204336 3.6327767 -1.6365691 15
7.2877822 5.748796 -1.6305575 13
5.0407033 2.6748595 -1.6252713 14
5.3268127 4.2042208 -1.6819942 17
8.19491 5.1605611 2.2242095 24
7.3307996 6.7181959 2.6513777 34
19.958853 12.570696 3.7219582 20
8.1854935 7.4760213 2.1461034 32
27.817307 17.519423 2.8730891 9
8.0212927 7.3080153 1.3261833 44
29.068821 18.300457 0.59896654 23
19.960819 18.163187 1.4125475 10
20.091909 12.644688 -1.2464653 17
8.0210505 7.2924643 -0.18861841 32
11.242147 7.0705366 -1.6240363 6
8.2154064 7.4719191 -0.9665876 41
7.2805686 4.5778909 -1.6618198 14
8.2106409 7.47541 -1.7551727 34
5.1930695 3.2620866 -1.6327317 15
5.4607301 4.981823 -1.6958134 15
8.6820145 4.6385822 2.0831225 27
7.9094176 6.2617884 2.5028017 25
27.910873 14.926535 4.443449 22
34.576305 18.505533 2.7330213 1
27.003916 21.323809 3.6127651 28
32.717422 17.518227 0 1
15.648502 8.3707609 -1.2354374 5
18.694731 14.745729 -0.83441192 24
10.284294 5.4914131 -1.6294886 5
7.448504 5.8735423 -0.9899841 7
6.8204336 3.6327767 -1.6365691 15
7.2877822 5.748796 -1.6305575 13
5.0407033 2.6748595 -1.6252713 14
5.3268127 4.2042208 -1.6819942 17
8.19491 5.1605611 2.2242095 24
7.3307996 6.7181959 2.6513777 34
19.958853 12.570696 3.7219582 20
8.1854935 7.4760213 2.1461034 32
27.817307 17.519423 2.8730891 9
8.0212927 7.3080153 1.3261833 44
29.068821 18.300457 0.59896654 23
19.960819 18.163187 1.4125475 10
20.091909 12.644688 -1.2464653 17
8.0210505 7.2924643 -0.18861841 32
11.242147 7.0705366 -1.6240363 6
8.2154064 7.4719191 -0.9665876 41
7.2805686 4.5778909 -1.6618198 14
8.2106409 7.47541 -1.7551727 34
5.1930695 3.2620866 -1.6327317 15
5.4607301 4.981823 -1.6958134 15
8.6773405 4.5952945 2.0779288 24
7.9723663 6.2642403 2.5154848 22
27.877895 14.777766 4.4295316 25
27.121416 21.286238 6.0668998 20
27.243206 14.453594 2.1487033 20
27.017313 21.174074 3.6041415 27
27.390722 14.537946 0 18
8.4826822 6.6415162 0.37499508 1
15.712134 8.3308678 -1.2380468 5
18.827339 14.738721 -0.83791935 20
10.304352 5.4536819 -1.6294886 5
7.493474 5.8645964 -0.99310946 3
6.8337021 3.6077545 -1.6365691 15
7.2971745 5.7129378 -1.6279529 16
5.0440893 2.6530149 -1.6232053 14
5.3479133 4.189158 -1.6838073 17
8.2530308 5.1550055 2.2348785 24
7.3321605 6.6701446 2.6429768 29
20.151396 12.589031 3.7492738 15
8.2092047 7.4426713 2.1451502 41
27.828526 17.384367 2.8676419 4
8.0406656 7.2719064 1.3249663 39
29.358324 18.332796 0.60354781 1
20.003174 18.068146 1.4108465 10
20.063995 12.524698 -1.2418706 16
8.0829687 7.2948513 -0.18944739 28
11.217456 6.9977703 -1.6167346 3
8.2538261 7.4517765 -0.96789229 36
7.2889681 4.5459828 -1.6599152 13
8.2727785 7.476738 -1.7626116 32
5.2029405 3.2417548 -1.6320851 14
5.4789519 4.9617748 -1.6958134 16
8.6773405 4.5952945 2.0779288 24
7.9723663 6.2642403 2.5154848 22
27.877895 14.777766 4.4295316 25
27.121416 21.286238 6.0668998 20
34.617458 18.364658 2.7309337 1
27.017313 21.174074 3.6041415 27
27.390722 14.537946 0 18
8.4826822 6.6415162 0.37499508 1
15.713587 8.328124 -1.2380468 5
18.827339 14.738721 -0.83791935 20
10.304352 5.4536819 -1.6294886 5
12.507154 9.7901669 -1.6601312 1
6.8337021 3.6077545 -1.6365691 15
7.298171 5.7116642 -1.6279529 16
5.0440893 2.6530149 -1.6232053 14
5.3486447 4.1882248 -1.6838073 17
8.2530308 5.1550055 2.2348785 24
7.333324 6.6688647 2.6429768 29
20.151396 12.589031 3.7492738 15
8.2105026 7.4412379 2.1451502 41
29.803507 18.617992 3.0713682 4
8.041935 7.270503 1.3249663 39
29.358324 18.332796 0.60354781 1
20.006327 18.064655 1.4108465 10
20.063995 12.524698 -1.2418706 16
8.0842428 7.2934408 -0.18944739 28
11.217456 6.9977703 -1.6167346 3
8.255126 7.4503355 -0.96789229 36
7.2897615 4.5447102 -1.6599152 13
8.2740831 7.4752941 -1.7626116 32
5.2035065 3.2408466 -1.6320851 14
5.4789519 4.9617748 -1.6958134 16
8.6825008 4.5592966 2.0753322 25
8.022872 6.2587619 2.5245442 24
27.16254 21.165709 6.0595269 52
27.240517 14.33055 2.1445284 20
27.042006 21.041464 3.5976083 28
27.565203 14.507432 0 25
8.4880619 6.5980611 0.37420982 9
9.9445744 5.2279196 -0.7812376 3
18.831333 14.636111 -0.83581489 26
10.294822 5.4027338 -1.6249766 5
12.376355 9.6182661 -1.6382531 5
6.8375864 3.5793467 -1.6344883 14
7.30057 5.6725545 -1.6240458 12
5.0554509 2.6365011 -1.623894 13
5.3555732 4.1635709 -1.6813898 16
8.229557 5.1005049 2.2236478 22
7.3529754 6.6399875 2.6416845 29
20.140648 12.484791 3.7391284 8
8.2218409 7.3993931 2.1413376 41
21.529943 13.34585 2.2131023 32
8.0801849 7.2539964 1.327096 29
29.681372 18.390812 0.6088708 18
20.091566 18.014715 1.4124166 19
20.090612 12.444069 -1.2408204 17
8.167345 7.3169055 -0.19079997 28
11.235485 6.9546537 -1.615822 4
8.4182796 7.5445313 -0.98398399 29
7.303494 4.5179453 -1.659439 12
8.2964516 7.4430671 -1.7618287 30
5.2230062 3.2277389 -1.6346716 16
5.490808 4.9377294 -1.6941289 17
8.6825008 4.5592966 2.0753322 25
8.022872 6.2587619 2.5245442 24
27.16254 21.165709 6.0595269 52
34.646042 18.225138 2.7281506 1
27.038334 21.046185 3.5976083 28
27.565203 14.507432 0 25
8.4880619 6.5980611 0.37420982 9
16.08773 8.4580994 -1.2653579 2
18.831333 14.636111 -0.83581489 26
10.293879 5.4045305 -1.6249766 5
12.376352 9.6182718 -1.6382531 5
6.8369613 3.5805402 -1.6344883 14
7.2995796 5.6738286 -1.6240458 12
5.0549912 2.6373835 -1.623894 13
5.354846 4.1645055 -1.6813898 16
8.2286663 5.1019411 2.2236478 22
7.3518167 6.6412706 2.6416845 29
20.138468 12.488307 3.7391284 8
8.2205486 7.4008288 2.1413376 41
21.527615 13.349607 2.2131023 32
8.0789194 7.2554064 1.327096 29
29.678162 18.395992 0.6088708 18
20.088421 18.018221 1.4124166 19
20.088438 12.447575 -1.2408204 17
8.164794 7.3197513 -0.19079997 28
11.23427 6.9566145 -1.615822 4
8.4156446 7.5474691 -0.98398399 29
7.3027043 4.5192199 -1.659439 12
8.2938528 7.4459624 -1.7618287 30
5.221879 3.229562 -1.6346716 16
5.4899459 4.9386878 -1.6941289 17
8.7561455 4.5609574 2.0893548 29
8.0570049 6.2425265 2.5287719 25
8.9247875 6.9052196 1.9815329 2
27.316631 14.255134 2.1467898 20
27.0529 20.913824 3.5902915 28
27.595428 14.40669 0 22
8.4703474 6.5393338 0.37246487 29
9.9830637 5.2081785 -0.7829771 5
18.830322 14.535414 -0.83362275 12
10.300763 5.3646507 -1.6232413 5
12.372753 9.5498266 -1.6335649 5
6.8357739 3.5510919 -1.6313671 16
7.3378396 5.6646404 -1.628387 9
5.0679798 2.6228123 -1.6252713 13
5.3705463 4.1482091 -1.6819942 17
8.2662907 5.0873914 2.2292633 23
7.415123 6.6539717 2.6565473 22
20.08934 12.365802 3.7223487 6
8.0676661 7.2147641 2.0951078 1
21.535709 13.255955 2.2093983 36
8.2584171 7.3673992 1.3526522 1
29.958292 18.432383 0.61336482 18
19.629942 17.489714 1.3760431 26
20.040291 12.325964 -1.2353069 15
8.2562008 7.352509 -0.1923707 17
11.21288 6.8920398 -1.6094328 4
8.4740887 7.5493541 -0.98789823 17
7.3155599 4.4936948 -1.6589628 10
8.3350773 7.4332156 -1.7653522 35
5.2263846 3.2084396 -1.6327317 16
5.4990306 4.9139576 -1.6918827 15
8.7561455 4.5609574 2.0893548 29
8.0570049 6.2425265 2.5287719 25
26.907427 20.823851 5.9871006 34
34.653217 18.082462 2.7239757 1
27.0529 20.913824 3.5902915 28
27.595428 14.40669 0 22
8.4703474 6.5393338 0.37246487 29
16.381075 8.5430326 -1.2862326 1
18.830322 14.535414 -0.83362275 12
10.300763 5.3646507 -1.6232413 5
12.372753 9.5498266 -1.6335649 5
6.8357739 3.5510919 -1.6313671 16
7.3378396 5.6646404 -1.628387 9
5.0679798 2.6228123 -1.6252713 13
5.3705463 4.1482091 -1.6819942 17
8.2662907 5.0873914 2.2292633 23
7.415123 6.6539717 2.6565473 22
20.08934 12.365802 3.7223487 6
8.0676661 7.2147641 2.0951078 1
21.535709 13.255955 2.2093983 36
8.2584171 7.3673992 1.3526522 1
29.958292 18.432383 0.61336482 18
19.629942 17.489714 1.3760431 26
20.040291 12.325964 -1.2353069 15
8.2562008 7.352509 -0.1923707 17
11.21288 6.8920398 -1.6094328 4
8.4740887 7.5493541 -0.98789823 17
7.3155599 4.4936948 -1.6589628 10
8.3350773 7.4332156 -1.7653522 35
5.2263846 3.2084396 -1.6327317 16
5.4990306 4.9139576 -1.6918827 15
8.7524529 4.5202742 2.0846806 21
8.107585 6.2365565 2.5378313 21
8.9468851 6.8725243 1.9810992 9
27.299774 14.125321 2.1415713 23
27.072487 20.778389 3.5832357 29
27.632227 14.303382 0 3
8.4752769 6.4960442 0.3716796 28
10.047709 5.1973448 -0.78663021 7
18.815508 14.419436 -0.83072913 12
10.286422 5.3116341 -1.6180352 5
12.356679 9.4687643 -1.6270535 5
6.8437791 3.5249722 -1.6303267 16
7.3966441 5.6689544 -1.6370695 8
5.074965 2.6040101 -1.6245826 14
5.3792195 4.1250067 -1.680181 16
8.2590446 5.0432744 2.2225249 29
7.4328976 6.6232252 2.6546085 25
20.241974 12.362522 3.74264 4
7.0215378 6.2344432 1.8167769 6
21.569096 13.172913 2.2080908 37
26.632484 23.60611 4.3591547 20
21.383696 13.054577 0.43670282 25
19.707695 17.435976 1.3772206 25
19.951059 12.175313 -1.2271677 15
17.790632 15.739298 -0.41401806 10
11.217801 6.8412333 -1.6066947 4
7.324913 4.4643006 -1.6575342 12
8.3572779 7.4007998 -1.7645692 35
5.2396159 3.1914322 -1.6333784 15
5.5179715 4.8963504 -1.6924443 13
8.7524529 4.5202742 2.0846806 21
8.107585 6.2365565 2.5378313 21
26.956526 20.711794 5.9818959 13
34.691761 17.948784 2.7220621 1
27.076113 20.773663 3.5832357 29
31.23806 16.169275 0 1
8.4752769 6.4960442 0.3716796 28
10.047709 5.1973448 -0.78663021 7
18.815508 14.419436 -0.83072913 12
10.287349 5.3098392 -1.6180352 5
12.356679 9.4687643 -1.6270535 5
6.8443942 3.5237775 -1.6303267 16
7.3966441 5.6689544 -1.6370695 8
5.0754194 2.6031246 -1.6245826 14
5.3792195 4.1250067 -1.680181 16
8.2599239 5.0418324 2.2225249 29
7.4328976 6.6232252 2.6546085 25
22.358175 13.649408 4.1340351 5
7.0215378 6.2344432 1.8167769 6
21.571396 13.169148 2.2080908 37
26.632484 23.60611 4.3591547 20
30.275295 18.474781 0.61846966 1
19.707695 17.435976 1.3772206 25
19.953184 12.17183 -1.2271677 15
17.793377 15.736197 -0.41401806 10
11.218994 6.8392744 -1.6066947 4
7.324913 4.4643006 -1.6575342 12
8.3585701 7.3993411 -1.7645692 35
5.2401724 3.1905179 -1.6333784 15
5.518826 4.8953876 -1.6924443 13
8.8321056 4.5204482 2.0997417 24
8.0879726 6.1744056 2.5245442 14
9.0033388 6.863574 1.9880383 28
27.318069 14.008102 2.1389618 24
27.098661 20.633612 3.5761797 28
27.700037 14.209995 0 13
8.4433594 6.4225731 0.36923665 20
10.08001 5.1673045 -0.78767395 8
18.915956 14.38668 -0.83283359 12
10.194309 5.2146378 -1.6003348 5
12.359639 9.3993263 -1.6228863 4
6.8507266 3.4953372 -1.6287661 16
7.4565573 5.6716247 -1.6457518 9
5.0870695 2.585592 -1.6252713 14
5.3943019 4.1052632 -1.680181 14
8.2491693 4.9938674 2.2146635 30
7.4336171 6.5751266 2.646208 20
21.863047 13.237434 4.0333571 8
7.0388198 6.203795 1.8153472 7
21.670647 13.12095 2.21332 31
26.655491 23.452599 4.3488107 23
21.410139 12.958137 0.43622285 35
19.977785 17.54488 1.391613 19
20.004072 12.102494 -1.2275615 16
17.819006 15.642837 -0.41327631 18
11.212132 6.7788553 -1.6021311 4
11.453637 10.056215 -1.3277804 6
7.347528 4.4412308 -1.6589628 10
8.4004669 7.3817 -1.7677013 30
5.2456279 3.1675465 -1.6314385 15
5.534904 4.8735161 -1.6918827 15
8.8321056 4.5204482 2.0997417 24
8.0879726 6.1744056 2.5245442 14
9.0033388 6.863574 1.9880383 28
34.732899 17.808998 2.7201486 1
27.098661 20.633612 3.5761797 28
27.700037 14.209995 0 13
8.4433594 6.4225731 0.36923665 20
10.080912 5.1655455 -0.78767395 8
18.915956 14.38668 -0.83283359 12
10.194309 5.2146378 -1.6003348 5
12.359642 9.3993216 -1.6228863 4
6.8507266 3.4953372 -1.6287661 16
7.4575472 5.6703229 -1.6457518 9
5.0870695 2.585592 -1.6252713 14
5.3950191 4.1043215 -1.680181 14
8.2491693 4.9938674 2.2146635 30
7.4347649 6.5738287 2.646208 20
21.863047 13.237434 4.0333571 8
7.0399022 6.2025666 1.8153472 7
21.670647 13.12095 2.21332 31
26.659586 23.447948 4.3488107 23
21.410139 12.958137 0.43622285 35
19.980848 17.541393 1.391613 19
20.004072 12.102494 -1.2275615 16
17.821735 15.639726 -0.41327631 18
11.212132 6.7788553 -1.6021311 4
11.455393 10.054216 -1.3277804 6
7.3483033 4.4399486 -1.6589628 10
8.4017544 7.3802342 -1.7677013 30
5.246181 3.166631 -1.6314385 15
5.534904 4.8735161 -1.6918827 15
8.8565559 4.4940133 2.101819 23
9.1030941 6.8995128 2.8349786 29
9.0193901 6.82616 1.9863036 26
27.331228 13.894582 2.1361785 23
27.12491 20.50441 3.5701697 28
8.4039278 6.3463736 0.36653194 31
10.078866 5.1201663 -0.78610837 18
8.4408712 6.3719702 -0.36994368 3
10.084356 5.11412 -1.5802047 5
12.358645 9.3306475 -1.6184586 4
6.8628864 3.4714026 -1.6287661 14
7.4989071 5.6605783 -1.6505272 9
5.0939174 2.5667393 -1.6245826 12
5.4054418 4.0825391 -1.6789722 14
8.3041458 4.9876127 2.224771 25
7.4304547 6.5239229 2.6365149 25
21.703785 13.037706 3.9955056 12
7.0485864 6.1666369 1.812011 7
21.805988 13.099085 2.2224715 30
26.69268 23.312296 4.3408999 24
21.386665 12.842151 0.43482667 39
20.055126 17.483027 1.3925289 19
20.041914 12.030023 -1.227299 14
17.82346 15.531429 -0.41205463 17
11.227214 6.7345719 -1.6009141 4
11.467894 9.9945259 -1.3251709 39
7.3532314 4.4079638 -1.6565821 13
8.4330463 7.3557339 -1.768876 28
5.2530584 3.1458187 -1.6301452 12
5.5445504 4.8477478 -1.6896367 13
8.8565559 4.4940133 2.101819 23
9.1030941 6.8995128 2.8349786 29
9.0193901 6.82616 1.9863036 26
34.745937 17.662792 2.7163215 1
27.12491 20.50441 3.5701697 28
8.4039278 6.3463736 0.36653194 31
10.077972 5.1219249 -0.78610837 18
19.009922 14.353689 -0.83476269 1
10.084356 5.11412 -1.5802047 5
12.358643 9.3306532 -1.6184586 4
6.8628864 3.4714026 -1.6287661 14
7.4979191 5.6618867 -1.6505272 9
5.0939174 2.5667393 -1.6245826 12
5.4047294 4.0834827 -1.6789722 14
8.3041458 4.9876127 2.224771 25
7.429316 6.5252194 2.6365149 25
21.703785 13.037706 3.9955056 12
7.0475101 6.1678672 1.812011 7
21.805988 13.099085 2.2224715 30
26.68861 23.316956 4.3408999 24
21.386665 12.842151 0.43482667 39
20.052076 17.486526 1.3925289 19
20.041914 12.030023 -1.227299 14
17.820749 15.534539 -0.41205463 17
11.227214 6.7345719 -1.6009141 4
11.466148 9.9965267 -1.3251709 39
7.3524613 4.4092474 -1.6565821 13
8.4317627 7.3572049 -1.768876 28
5.2525091 3.1467357 -1.6301452 12
5.5445504 4.8477478 -1.6896367 13
8.9413261 4.4997687 2.1184385 24
9.2305737 6.9480906 2.8675923 20
9.0557508 6.8065715 1.9893394 23
27.337069 13.783666 2.1330473 22
27.129131 20.366579 3.5618074 30
8.4589005 6.3439608 0.36801517 31
10.077084 5.0795035 -0.78471673 16
8.4519615 6.3364487 -0.36950526 19
10.085774 5.0728703 -1.5777752 8
12.385538 9.2866344 -1.6179377 4
6.859056 3.4409585 -1.6251247 15
7.5560384 5.6665425 -1.6592095 8
5.0937982 2.545542 -1.621828 15
5.4046621 4.0553417 -1.6747415 14
8.3290119 4.9650369 2.2270172 28
7.4363613 6.4878387 2.6313453 24
21.60479 12.880947 3.9693606 9
7.0327497 6.113853 1.8029556 8
21.847166 13.025427 2.2222536 31
26.685209 23.158379 4.3278179 26
21.426987 12.769879 0.43478307 36
20.240137 17.532745 1.4015568 27
20.053814 11.946888 -1.2255925 14
17.840048 15.447537 -0.41131291 15
11.223897 6.682075 -1.5972632 4
11.533114 9.9878073 -1.3290851 1
7.3691516 4.386096 -1.6570582 15
8.4822254 7.3518548 -1.7743572 23
5.2587624 3.126833 -1.6288519 14
5.5624332 4.8309326 -1.6901982 14
8.9413261 4.4997687 2.1184385 24
9.2305737 6.9480906 2.8675923 20
9.0557508 6.8065715 1.9893394 23
34.76646 17.528389 2.7133644 1
27.12558 20.371313 3.5618074 30
8.4589005 6.3439608 0.36801517 31
10.077084 5.0795035 -0.78471673 16
8.4519615 6.3364487 -0.36950526 19
10.084889 5.0746303 -1.5777752 8
12.385538 9.2866344 -1.6179377 4
6.8584557 3.4421556 -1.6251247 15
7.5560384 5.6665425 -1.6592095 8
5.0933533 2.5464311 -1.621828 15
5.4046621 4.0553417 -1.6747415 14
8.328145 4.9664907 2.2270172 28
7.4363613 6.4878387 2.6313453 24
21.602539 12.884717 3.9693606 9
7.0327497 6.113853 1.8029556 8
21.844894 13.02924 2.2222536 31
26.685209 23.158379 4.3278179 26
21.424757 12.773621 0.43478307 36
20.240137 17.532745 1.4015568 27
20.051729 11.950387 -1.2255925 14
17.837355 15.450645 -0.41131291 15
11.222732 6.6840339 -1.5972632 4
11.531371 9.9898195 -1.3290851 1
7.3691516 4.386096 -1.6570582 15
8.4809418 7.3533354 -1.7743572 23
5.2582169 3.1277506 -1.6288519 14
5.5615902 4.8319035 -1.6901982 14
9.0672054 4.5214868 2.1444061 25
9.1626987 6.8445072 2.8386023 24
27.991388 13.972854 4.3919544 24
9.0747185 6.7689176 1.9880383 22
28.49851 14.238323 2.2196774 41
27.156204 20.239065 3.5560584 30
20.948149 10.471824 0 8
8.4680681 6.3024702 0.36740443 98
10.113484 5.0514436 -0.78610837 4
8.4791374 6.3084116 -0.36968061 18
10.096773 5.0343213 -1.5767341 10
8.5300827 6.3463225 -1.1100532 8
6.8688359 3.4159071 -1.6246045 16
7.6083531 5.6623349 -1.6661555 9
5.0983438 2.5256155 -1.6204505 15
5.4136534 4.0311575 -1.6729285 16
8.3253193 4.9235353 2.2214017 25
7.4783392 6.4763584 2.6378074 18
21.717636 12.845678 3.9818478 9
7.0328245 6.0687847 1.7972366 10
21.894646 12.950355 2.2224715 25
26.722916 23.019924 4.3202119 26
21.501554 12.712816 0.4353939 32
20.277763 17.43565 1.3997251 27
20.061005 11.856491 -1.223492 14
17.854067 15.350934 -0.41039664 17
11.227923 6.6315007 -1.5945251 4
11.573572 9.9523611 -1.3297374 1
7.3830647 4.3578105 -1.6565821 15
8.4741611 7.2931952 -1.7673098 18
5.2738066 3.1109102 -1.6301452 14
5.5829506 4.8146715 -1.6913213 16
9.0672054 4.5214868 2.1444061 25
9.1626987 6.8445072 2.8386023 24
27.991388 13.972854 4.3919544 24
9.0747185 6.7689176 1.9880383 22
28.49851 14.238323 2.2196774 41
27.159735 20.234327 3.5560584 30
20.948149 10.471824 0 8
8.4680681 6.3024702 0.36740443 98
15.993551 7.9857006 -1.2444831 1
8.4791374 6.3084116 -0.36968061 18
10.097651 5.0325589 -1.5767341 10
8.5300827 6.3463225 -1.1100532 8
6.869432 3.4147086 -1.6246045 16
7.6083531 5.6623349 -1.6661555 9
5.0987844 2.5247254 -1.6204505 15
5.4136534 4.0311575 -1.6729285 16
8.3261795 4.9220819 2.2214017 25
7.4783392 6.4763584 2.6378074 18
21.719877 12.841887 3.9818478 9
7.0328245 6.0687847 1.7972366 10
21.896904 12.946532 2.2224715 25
26.722916 23.019924 4.3202119 26
21.503775 12.709064 0.4353939 32
20.277763 17.43565 1.3997251 27
20.063076 11.85299 -1.223492 14
17.856743 15.347823 -0.41039664 17
11.229079 6.6295404 -1.5945251 4
11.575309 9.9503403 -1.3297374 1
7.3830647 4.3578105 -1.6565821 15
8.4754343 7.2917171 -1.7673098 18
5.2743492 3.1099896 -1.6301452 14
5.5837908 4.8136964 -1.6913213 16
9.2254572 4.5601869 2.178164 25
9.2683659 6.8731875 2.8639686 16
28.073277 13.891524 4.3971739 24
9.0765285 6.7210774 1.9832677 27
28.543566 14.136544 2.2193294 36
27.148243 20.078775 3.5453441 30
20.968891 10.390869 0 14
8.5020704 6.2817822 0.36792791 154
10.093054 4.9973116 -0.78315115 1
23.272518 17.193096 -1.0142542 7
10.068534 4.9742694 -1.5694455 7
8.5181885 6.2913899 -1.1056255 27
6.8747277 3.3874698 -1.6230438 17
7.6696506 5.6664748 -1.6752721 9
5.1075668 2.5069122 -1.6204505 16
5.4335427 4.0165629 -1.6747415 16
8.3601236 4.9028449 2.225894 31
7.5741153 6.5132341 2.6636555 13
21.77309 12.770988 3.9834085 9
7.0371995 6.0298181 1.7929472 9
21.946259 12.872539 2.2229073 32
26.737112 22.870041 4.3095632 28
21.657982 12.698395 0.43761906 26
20.374573 17.395571 1.4022111 28
20.067711 11.761428 -1.2212603 14
17.87599 15.256183 -0.40961128 15
11.232881 6.5790191 -1.591787 4
11.634591 9.9309015 -1.3325644 1
7.4003491 4.3332515 -1.6570582 13
8.4839458 7.2476468 -1.7637862 19
5.2789187 3.087904 -1.6282054 15
5.5894618 4.7846642 -1.687952 15
9.2254572 4.5601869 2.178164 25
9.2683659 6.8731875 2.8639686 16
28.073277 13.891524 4.3971739 24
9.0765285 6.7210774 1.9832677 27
28.543566 14.136544 2.2193294 36
27.148243 20.078775 3.5453441 30
20.968891 10.390869 0 14
8.5020704 6.2817822 0.36792791 154
15.842496 7.841361 -1.2305666 1
23.272518 17.193096 -1.0142542 7
10.068534 4.9742694 -1.5694455 7
8.5181885 6.2913899 -1.1056255 27
6.8747277 3.3874698 -1.6230438 17
7.6696506 5.6664748 -1.6752721 9
5.1075668 2.5069122 -1.6204505 16
5.4335427 4.0165629 -1.6747415 16
8.3601236 4.9028449 2.225894 31
7.5741153 6.5132341 2.6636555 13
21.77309 12.770988 3.9834085 9
7.0371995 6.0298181 1.7929472 9
21.946259 12.872539 2.2229073 32
26.737112 22.870041 4.3095632 28
21.657982 12.698395 0.43761906 26
20.374573 17.395571 1.4022111 28
20.067711 11.761428 -1.2212603 14
17.87599 15.256183 -0.40961128 15
11.232881 6.5790191 -1.591787 4
11.634591 9.9309015 -1.3325644 1
7.4003491 4.3332515 -1.6570582 13
8.4839458 7.2476468 -1.7637862 19
5.2789187 3.087904 -1.6282054 15
5.5894618 4.7846642 -1.687952 15
9.3130064 4.5650597 2.1953027 22
8.111414 5.9733052 2.4991779 13
28.074736 13.776548 4.3902149 28
9.112649 6.7011557 1.9863036 12
27.423943 13.469163 2.1286983 1
27.190636 19.970976 3.5422084 29
20.998747 10.319072 0 17
8.500701 6.2372913 0.36696818 140
9.7401266 4.7825856 -0.75444829 27
23.315302 17.105482 -1.0136404 7
10.064961 4.9310579 -1.5663218 5
8.5550423 6.2748756 -1.1077092 10
6.8837252 3.3635814 -1.6225235 16
7.7042761 5.6526647 -1.678745 9
5.1136899 2.4889109 -1.6197618 16
5.437057 3.9913423 -1.6717197 15
8.3279047 4.8469186 2.2129791 25
7.5773163 6.4723873 2.6571934 17
21.717148 12.641577 3.9654582 29
7.0403438 5.992125 1.7886578 9
22.031874 12.824746 2.2272651 5
26.771206 22.745899 4.3028698 26
21.771271 12.667984 0.4390589 16
20.502586 17.387667 1.4070522 31
20.093653 11.687284 -1.2204727 15
17.880732 15.158019 -0.40856412 16
11.23318 6.5292659 -1.5887444 4
11.673157 9.8970985 -1.3332168 1
7.4189224 4.3111529 -1.6580106 12
8.5568657 7.2610297 -1.7739656 14
5.2974844 3.0752285 -1.6307918 14
5.6090074 4.7692609 -1.6890751 17
9.3130064 4.5650597 2.1953027 22
8.111414 5.9733052 2.4991779 13
28.074736 13.776548 4.3902149 28
9.112649 6.7011557 1.9863036 12
27.423943 13.469163 2.1286983 1
27.187149 19.975721 3.5422084 29
20.998747 10.319072 0 17
8.500701 6.2372913 0.36696818 140
9.7401266 4.7825856 -0.75444829 27
23.315302 17.105482 -1.0136404 7
10.0641 4.9328141 -1.5663218 5
8.5550423 6.2748756 -1.1077092 10
6.8831382 3.364783 -1.6225235 16
7.7042761 5.6526647 -1.678745 9
5.1132555 2.4898033 -1.6197618 16
5.437057 3.9913423 -1.6717197 15
8.3270597 4.8483715 2.2129791 25
7.5773163 6.4723873 2.6571934 17
21.714941 12.645369 3.9654582 29
7.0403438 5.992125 1.7886578 9
29.995098 17.466463 3.0336735 16
26.771206 22.745899 4.3028698 26
32.732876 19.052879 0.66048622 1
20.502586 17.387667 1.4070522 31
20.091612 11.690792 -1.2204727 15
17.87809 15.161134 -0.40856412 16
11.23204 6.5312271 -1.5887444 4
11.67143 9.8991356 -1.3332168 1
7.4189224 4.3111529 -1.6580106 12
8.5555983 7.2625227 -1.7739656 14
5.296948 3.076153 -1.6307918 14
5.6081748 4.7702398 -1.6890751 17
9.3310843 4.5335913 2.195822 26
8.0068932 5.8533006 2.4605246 23
28.120426 13.677382 4.3898673 24
27.423698 13.350436 2.1250453 3
27.214527 19.849926 3.5367205 30
20.998674 10.228201 0 19
8.5062666 6.1958094 0.36627021 137
9.6984472 4.7202034 -0.74992549 38
23.320345 16.984274 -1.0112729 8
10.067895 4.8911676 -1.5642395 3
12.383358 9.0176449 -1.6010082 3
6.8860369 3.3364758 -1.6204427 17
7.8095222 5.6880846 -1.6974121 4
5.1240802 2.4729826 -1.6204505 17
5.4509563 3.9723389 -1.6717197 16
8.204689 4.7388835 2.1759181 24
7.6182737 6.4615278 2.6636555 24
21.908632 12.655947 3.992774 15
7.0555968 5.9627585 1.7872281 12
30.062355 17.365393 3.034327 28
26.780277 22.5931 4.2916131 18
32.738567 18.903509 0.65926456 34
20.568886 17.32082 1.4074447 32
20.052294 11.574416 -1.2156155 12
17.900314 15.07287 -0.407866 16
11.226826 6.4758654 -1.5847894 4
11.707817 9.8599405 -1.3334342 2
7.4211664 4.2778778 -1.6551535 10
8.5412636 7.1991801 -1.7657437 9
5.2992821 3.052825 -1.6282054 15
5.6210718 4.7474885 -1.687952 17
9.3310843 4.5335913 2.195822 26
8.0068932 5.8533006 2.4605246 23
28.120426 13.677382 4.3898673 24
27.416971 13.347163 2.1245236 3
27.217991 19.845175 3.5367205 30
20.998674 10.228201 0 19
8.5062666 6.1958094 0.36627021 137
9.6984472 4.7202034 -0.74992549 38
23.320345 16.984274 -1.0112729 8
10.068748 4.889411 -1.5642395 3
12.383358 9.0176449 -1.6010082 3
6.8866191 3.335274 -1.6204427 17
7.8095222 5.6880846 -1.6974121 4
5.1245122 2.4720881 -1.6204505 17
5.4509563 3.9723389 -1.6717197 16
8.2055159 4.7374516 2.1759181 24
7.6182737 6.4615278 2.6636555 24
21.910839 12.652122 3.992774 15
7.0555968 5.9627585 1.7872281 12
30.065384 17.360146 3.034327 28
26.780277 22.5931 4.2916131 18
32.741867 18.897795 0.65926456 34
20.568886 17.32082 1.4074447 32
20.054314 11.570916 -1.2156155 12
17.902941 15.069751 -0.407866 16
11.227957 6.473906 -1.5847894 4
11.709539 9.8578968 -1.3334342 2
7.4211664 4.2778778 -1.6551535 10
8.5425196 7.19769 -1.7657437 9
5.2998152 3.0518999 -1.6282054 15
5.6219001 4.7465072 -1.687952 17
9.2969475 4.474987 2.1838768 22
7.9929528 5.7982664 2.4496534 27
28.139143 13.559183 4.3849959 25
8.207407 5.9451857 1.7789994 8
27.440996 13.234672 2.1226101 3
27.224075 19.697186 3.5280969 31
21.013504 10.140306 0 20
8.5430908 6.1748385 0.36688095 6
9.7066956 4.6802959 -0.74922961 41
23.352066 16.876732 -1.0099577 8
10.079906 4.849256 -1.5631982 4
12.404236 8.9634581 -1.5994456 4
6.8965917 3.308954 -1.6199225 16
7.8422885 5.6680784 -1.700017 4
5.1292 2.45122 -1.6190733 15
5.4635139 3.9509113 -1.6711153 15
8.2059097 4.6976652 2.1714258 27
7.6954618 6.478693 2.6823955 21
21.997782 12.595039 4.0001879 13
7.0792828 5.938436 1.7877046 14
30.061808 17.211475 3.0275726 30
7.2276964 6.0480709 1.1512452 7
32.769695 18.754076 0.65843564 34
20.741402 17.336596 1.4149026 21
20.079252 11.487419 -1.2145653 12
17.915859 14.968763 -0.40690613 15
11.234374 6.4228597 -1.5823554 4
11.739859 9.8101206 -1.3327818 2
7.4367962 4.2506495 -1.6551535 10
8.5101471 7.1172013 -1.7536067 8
5.3088675 3.0312579 -1.6275587 15
5.6373935 4.7243042 -1.6873906 15
9.2969475 4.474987 2.1838768 22
7.9929528 5.7982664 2.4496534 27
28.139143 13.559183 4.3849959 25
8.207407 5.9451857 1.7789994 8
27.440996 13.234672 2.1226101 3
27.224075 19.697186 3.5280969 31
21.013504 10.140306 0 20
27.704256 20.029928 1.192603 20
9.7075119 4.6786017 -0.74922961 41
23.352066 16.876732 -1.0099577 8
10.079906 4.849256 -1.5631982 4
12.40424 8.9634533 -1.5994456 4
6.8965917 3.308954 -1.6199225 16
7.8432779 5.6667099 -1.700017 4
5.1292 2.45122 -1.6190733 15
5.4642034 3.9499581 -1.6711153 15
8.2059097 4.6976652 2.1714258 27
7.6965919 6.4773498 2.6823955 21
21.997782 12.595039 4.0001879 13
7.0803189 5.9372001 1.7877046 14
30.061808 17.211475 3.0275726 30
7.2287521 6.0468092 1.1512452 7
32.769695 18.754076 0.65843564 34
20.744429 17.332977 1.4149026 21
20.079252 11.487419 -1.2145653 12
17.91847 14.965636 -0.40690613 15
11.234374 6.4228597 -1.5823554 4
11.74157 9.8080711 -1.3327818 2
7.4375377 4.2493515 -1.6551535 10
8.5113897 7.1157165 -1.7536067 8
5.3093963 3.0303311 -1.6275587 15
5.6373935 4.7243042 -1.6873906 15
9.2904367 4.4319873 2.1786833 24
8.0643215 5.8072 2.4653563 21
27.314989 13.044909 4.2493024 24
8.2341042 5.9208131 1.7803004 14
27.475773 13.133427 2.1217401 2
27.24824 19.570126 3.5223477 31
9.7621355 4.6713471 0 5
9.7170315 4.6414657 -0.74870777 40
23.339783 16.744137 -1.0068886 9
10.226412 4.8757935 -1.5833284 5
12.413231 8.9041567 -1.5965805 4
6.9014735 3.2817137 -1.6183619 14
7.8530087 5.6321206 -1.6978464 5
5.1398978 2.4343278 -1.6197618 15
5.4720459 3.9266152 -1.6693021 16
8.2328501 4.6750054 2.1742334 24
7.741385 6.4690375 2.6901498 20
21.983635 12.485253 3.9896522 15
7.095345 5.9077358 1.7862749 9
30.102217 17.095369 3.0256116 30
7.2269173 6.002502 1.1475942 8
32.806698 18.623531 0.65786844 32
7.3087888 6.0598264 0.49575233 2
20.0606 11.383995 -1.2110208 14
17.939823 14.877464 -0.40620804 16
11.232979 6.3701429 -1.5790087 4
11.810232 9.7956543 -1.336696 2
7.4437838 4.2185249 -1.6532488 12
8.4829979 7.0417814 -1.7426442 4
5.3220439 3.012969 -1.6282054 15
5.6426201 4.695241 -1.6840214 18
9.2904367 4.4319873 2.1786833 24
8.0643215 5.8072 2.4653563 21
27.314989 13.044909 4.2493024 24
8.2341042 5.9208131 1.7803004 14
27.475773 13.133427 2.1217401 2
27.24824 19.570126 3.5223477 31
21.026218 10.05611 0 1
9.7162209 4.6431618 -0.74870777 40
23.339783 16.744137 -1.0068886 9
10.226412 4.8757935 -1.5833284 5
12.413227 8.9041615 -1.5965805 4
6.9014735 3.2817137 -1.6183619 14
7.8520255 5.6334915 -1.6978464 5
5.1398978 2.4343278 -1.6197618 15
5.4713607 3.9275706 -1.6693021 16
8.2328501 4.6750054 2.1742334 24
7.7402558 6.4703884 2.6901498 20
21.983635 12.485253 3.9896522 15
7.0943146 5.9089737 1.7862749 9
30.102217 17.095369 3.0256116 30
7.2258697 6.0037637 1.1475942 8
32.806698 18.623531 0.65786844 32
7.3077312 6.0611019 0.49575233 2
20.0606 11.383995 -1.2110208 14
17.937225 14.880594 -0.40620804 16
11.232979 6.3701429 -1.5790087 4
11.808522 9.7977161 -1.336696 2
7.443047 4.2198238 -1.6532488 12
8.4817686 7.0432625 -1.7426442 4
5.3215179 3.0138974 -1.6282054 15
5.6426201 4.695241 -1.6840214 18
9.2984486 4.3980203 2.1771252 22
8.1624537 5.8368855 2.4895146 28
27.089951 19.349102 5.8578606 20
27.442549 13.005938 2.1158257 3
27.32513 19.488319 3.5239155 28
21.030081 9.9724102 0 12
9.7338181 4.6119823 -0.7488817 31
23.378904 16.65505 -1.0061872 8
10.271627 4.8555989 -1.5878402 5
12.402186 8.8340921 -1.5913714 4
6.9123182 3.2588096 -1.6183619 13
7.8887081 5.6202831 -1.7017535 5
5.1392374 2.4131906 -1.6170073 15
5.4843545 3.9094052 -1.6693021 15
8.2376947 4.6417012 2.1714258 27
8.2018547 6.8105245 2.8433003 18
21.973286 12.383191 3.9802868 13
7.1044202 5.8775897 1.7838919 5
30.124023 16.975891 3.0221255 29
7.2361751 5.9718671 1.146073 9
32.807293 18.480293 0.65664679 27
7.2815633 5.9987154 0.49261215 8
17.949825 14.79082 -0.40537903 12
11.238902 6.3243413 -1.576879 4
11.888984 9.7981167 -1.3421323 3
7.4569998 4.1951184 -1.6532488 10
8.4612827 6.9789438 -1.7336392 6
5.3209553 2.9903212 -1.6249721 14
5.6562819 4.6749506 -1.6834599 15
9.2984486 4.3980203 2.1771252 22
8.1624537 5.8368855 2.4895146 28
27.089951 19.349102 5.8578606 20
27.442549 13.005938 2.1158257 3
27.32513 19.488319 3.5239155 28
21.043634 9.9788342 0 12
9.7338181 4.6119823 -0.7488817 31
23.378904 16.65505 -1.0061872 8
10.271627 4.8555989 -1.5878402 5
12.402186 8.8340921 -1.5913714 4
6.9123182 3.2588096 -1.6183619 13
7.8887081 5.6202831 -1.7017535 5
5.1392374 2.4131906 -1.6170073 15
5.4843545 3.9094052 -1.6693021 15
8.2376947 4.6417012 2.1714258 27
8.2018547 6.8105245 2.8433003 18
21.973286 12.383191 3.9802868 13
7.1044202 5.8775897 1.7838919 5
30.124023 16.975891 3.0221255 29
7.2361751 5.9718671 1.146073 9
32.807293 18.480293 0.65664679 27
7.2815633 5.9987154 0.49261215 8
17.949825 14.79082 -0.40537903 12
11.238902 6.3243413 -1.576879 4
11.888984 9.7981167 -1.3421323 3
7.4569998 4.1951184 -1.6532488 10
8.4612827 6.9789438 -1.7336392 6
5.3209553 2.9903212 -1.6249721 14
5.6562819 4.6749506 -1.6834599 15
9.3558235 4.3852386 2.1869931 22
8.2658539 5.8673525 2.5148809 21
27.849176 13.0679 4.318541 18
27.471977 12.902647 2.114608 9
27.395021 19.394258 3.5241771 36
21.057974 9.8957529 0 10
9.7476015 4.5769186 -0.74870777 39
23.355305 16.515631 -1.0026797 9
10.277303 4.8144674 -1.5861049 5
12.424828 8.7850037 -1.5903296 4
6.9192195 3.2325938 -1.6173216 12
7.9022479 5.5884457 -1.700451 6
5.151989 2.3972611 -1.6183846 16
5.4900484 3.8846302 -1.6668847 15
8.33041 4.6556897 2.1916409 26
8.1063662 6.6834764 2.8019433 17
22.104753 12.355808 3.9962859 9
7.1400571 5.8652239 1.7877046 10
30.14179 16.847549 3.0179853 30
7.2608132 5.9497194 1.1466815 8
32.849777 18.353468 0.65621042 25
7.2676878 5.9447918 0.49025702 15
7.3336515 5.9966645 -0.16475204 5
11.24791 6.2778177 -1.5750537 4
12.023318 9.8386011 -1.35344 5
7.4630241 4.1642814 -1.6513443 14
8.4607668 6.9290175 -1.7285495 6
5.3397994 2.9764304 -1.6275587 14
5.6669192 4.650538 -1.6817752 17
9.3558235 4.3852386 2.1869931 22
8.2658539 5.8673525 2.5148809 21
27.849176 13.0679 4.318541 18
18.926847 13.418285 4.080596 1
27.471977 12.902647 2.114608 9
27.395021 19.394258 3.5241771 36
21.064762 9.898941 0 10
9.7476015 4.5769186 -0.74870777 39
23.355305 16.515631 -1.0026797 9
10.277303 4.8144674 -1.5861049 5
12.424828 8.7850037 -1.5903296 4
6.9192195 3.2325938 -1.6173216 12
7.9022479 5.5884457 -1.700451 6
5.151989 2.3972611 -1.6183846 16
5.4900484 3.8846302 -1.6668847 15
8.33041 4.6556897 2.1916409 26
8.1063662 6.6834764 2.8019433 17
22.104753 12.355808 3.9962859 9
7.1400571 5.8652239 1.7877046 10
30.14179 16.847549 3.0179853 30
7.2608132 5.9497194 1.1466815 8
32.849777 18.353468 0.65621042 25
7.2676878 5.9447918 0.49025702 15
7.3336515 5.9966645 -0.16475204 5
11.24791 6.2778177 -1.5750537 4
12.023318 9.8386011 -1.35344 5
7.4630241 4.1642814 -1.6513443 14
8.4607668 6.9290175 -1.7285495 6
5.3397994 2.9764304 -1.6275587 14
5.6669192 4.650538 -1.6817752 17
9.2978687 4.3185887 2.1698544 26
8.2585249 5.8188953 2.5064256 26
28.184229 13.105224 4.3634243 23
