# .PCD v0.7 - Point Cloud Data file format
VERSION 0.7
FIELDS x y z intensity
SIZE 4 4 4 4
TYPE F F F F
COUNT 1 1 1 1
WIDTH 1437
HEIGHT 1
VIEWPOINT 0 0 0 1 0 0 0
POINTS 1437
DATA ascii
14.982142 14.310976 1.0840085 8
12.778071 8.485261 -0.80472171 18
14.963121 14.287806 -0.360526 19
6.2563787 4.1523986 -0.91637272 23
6.9207883 6.6073599 -0.83241785 10
4.8742542 3.2330651 -1.1280376 18
4.2050848 4.016355 -0.91654241 17
4.111681 2.7244785 -1.3113583 24
3.2383299 3.1001301 -1.0253495 24
12.99577 7.3544893 3.1638947 27
14.400154 8.1619625 2.3214071 27
14.366676 8.1496038 1.1496745 1
15.065524 8.5492592 0 25
14.105611 11.699743 0.63874799 4
11.878393 6.7334533 -0.94997519 8
14.030639 11.633411 -0.6384356 28
6.1398501 3.4771328 -0.98428738 23
6.2042203 5.1427035 -0.84048378 21
5.1357818 2.9010525 -1.2474548 23
4.3673377 3.6205883 -0.99413657 19
4.415978 2.4850414 -1.4420838 18
3.6696231 3.0438843 -1.1791487 25
12.772037 8.4876795 0.26706544 3
14.979643 14.31359 1.0840085 8
12.77659 8.4874907 -0.80472171 18
14.958137 14.293022 -0.360526 19
6.2556534 4.153491 -0.91637272 23
6.9184809 6.6097751 -0.83241785 10
4.8736897 3.2339156 -1.1280376 18
4.2036829 4.0178227 -0.91654241 17
4.1107297 2.7259138 -1.3113583 24
3.2377889 3.1006954 -1.0253495 24
12.991504 7.2923317 3.1566238 29
14.564529 8.1880436 2.3433268 22
12.684238 7.1373854 1.0127712 23
12.458817 7.0134745 0 2
14.07501 11.591657 0.6355198 4
11.732232 6.5966616 -0.93640655 18
13.995942 11.522424 -0.6350159 30
6.1972952 3.4811156 -0.99157584 22
6.2797155 5.1684308 -0.84829736 21
5.1416092 2.8807199 -1.2464144 22
4.319139 3.5552292 -0.9802447 20
4.435123 2.4754596 -1.4455273 16
3.7625866 3.0989492 -1.2057414 30
12.738983 8.4017658 0.26575652 4
14.940794 14.176991 1.0775974 9
12.747774 8.4043703 -0.80104595 23
14.90279 14.140905 -0.35799536 16
6.2369576 4.1097913 -0.91150486 25
6.9198403 6.5650058 -0.82980841 10
4.9567018 3.2641063 -1.1447034 21
4.221261 4.0065274 -0.91732544 21
3.9002886 2.5669153 -1.2408761 19
3.4884398 3.3179376 -1.1017172 23
12.991504 7.2923317 3.1566238 29
14.564529 8.1880436 2.3433268 22
14.392864 8.0981827 1.1495007 1
15.154104 8.5297136 0 20
14.07501 11.591657 0.6355198 4
11.732232 6.5966616 -0.93640655 18
13.995942 11.522424 -0.6350159 30
6.1979032 3.4800339 -0.99157584 22
6.2797155 5.1684308 -0.84829736 21
5.1421113 2.8798225 -1.2464144 22
4.319139 3.5552292 -0.9802447 20
4.435555 2.4746854 -1.4455273 16
3.7625866 3.0989492 -1.2057414 30
12.740448 8.3995419 0.26575652 4
14.940794 14.176991 1.0775974 9
12.749241 8.4021454 -0.80104595 23
14.905254 14.138309 -0.35799536 16
6.2376742 4.1087022 -0.91150486 25
6.9209857 6.563798 -0.82980841 10
4.9567018 3.2641063 -1.1447034 21
4.221961 4.0057907 -0.91732544 21
3.9007363 2.5662344 -1.2408761 19
3.4890189 3.3173287 -1.1017172 23
13.099359 7.2898321 3.1763594 22
14.57714 8.1249695 2.3405433 7
12.505554 6.9766927 0.99641943 3
12.473522 6.9616752 0 101
14.009084 11.451429 0.63063389 4
11.743259 6.5463343 -0.93536288 20
13.951027 11.399899 -0.63107008 28
6.3209753 3.5186436 -1.0092764 25
6.3544464 5.1910114 -0.85585052 24
5.1782966 2.8751824 -1.2526569 22
4.4426904 3.6297622 -1.0054237 18
4.4403872 2.4560888 -1.44415 17
3.7870624 3.0958915 -1.2099721 24
12.706295 8.3103828 0.26440394 5
14.89454 14.029676 1.070532 9
12.769502 8.3485308 -0.80038953 24
14.860543 13.992744 -0.35568291 14
6.1695895 4.0315361 -0.89933527 19
6.9468093 6.5400949 -0.83002579 13
4.9480815 3.2324998 -1.1399417 23
4.2976809 4.0478959 -0.93063694 21
3.5135441 3.3162353 -1.1056478 20
13.099359 7.2898321 3.1763594 22
14.57714 8.1249695 2.3405433 7
14.522649 8.1012402 1.1575027 16
12.473522 6.9616752 0 101
14.009084 11.451429 0.63063389 4
11.744402 6.5442853 -0.93536288 20
13.951027 11.399899 -0.63107008 28
6.3209753 3.5186436 -1.0092764 25
6.3544497 5.1910062 -0.85585052 24
5.1782966 2.8751824 -1.2526569 22
4.4433241 3.6289866 -1.0054237 18
4.4403872 2.4560888 -1.44415 17
3.7876029 3.0952303 -1.2099721 24
12.706295 8.3103828 0.26440394 5
14.896989 14.027077 1.070532 9
12.769502 8.3485308 -0.80038953 24
14.862986 13.990149 -0.35568291 14
6.1695895 4.0315361 -0.89933527 19
6.9479504 6.5388823 -0.83002579 13
4.9486456 3.2316363 -1.1399417 23
4.2983871 4.0471463 -0.93063694 21
3.5135441 3.3162353 -1.1056478 20
13.423216 7.4117584 3.2490685 23
14.632173 8.0921555 2.3450665 4
12.48061 6.9086266 0.99259239 3
12.452791 6.8960633 0 13
13.971343 11.343484 0.62723118 5
11.742026 6.4920368 -0.93344933 21
13.911163 11.290585 -0.62756264 28
6.3174338 3.4892931 -1.0068469 25
5.1920881 2.8603513 -1.2536973 23
4.4266615 3.5909557 -0.99891192 20
4.4674778 2.4517405 -1.450348 14
3.7827828 3.070416 -1.205137 26
12.670886 8.2273712 0.26309502 4
14.855924 13.89572 1.0642515 9
12.681932 8.2313957 -0.79316938 20
14.823501 13.860528 -0.35363221 18
6.2391396 4.0475049 -0.9075498 22
6.9823251 6.5277176 -0.83154798 13
4.9222608 3.1911874 -1.1313708 18
4.2937651 4.0159893 -0.92672187 20
4.1257939 2.6720881 -1.306832 20
3.5458286 3.3245814 -1.1123862 18
13.423216 7.4117584 3.2490685 23
14.632173 8.0921555 2.3450665 4
14.540705 8.0482073 1.1568068 21
12.483415 6.9130101 0 13
13.971343 11.343484 0.62723118 5
11.740894 6.4940863 -0.93344933 21
13.911163 11.290585 -0.62756264 28
6.3174338 3.4892931 -1.0068469 25
5.1920881 2.8603513 -1.2536973 23
4.4260354 3.5917282 -0.99891192 20
4.4674778 2.4517405 -1.450348 14
3.7822471 3.0710764 -1.205137 26
12.670886 8.2273712 0.26309502 4
14.853498 13.898312 1.0642515 9
12.681932 8.2313957 -0.79316938 20
14.821082 13.863114 -0.35363221 18
6.2391396 4.0475049 -0.9075498 22
6.9811859 6.5289359 -0.83154798 13
4.9217043 3.1920462 -1.1313708 18
4.2930636 4.0167389 -0.92672187 20
4.1253276 2.6728082 -1.306832 20
3.5458286 3.3245814 -1.1123862 18
13.639932 7.4693427 3.2952909 25
14.603886 8.0100889 2.3360202 1
12.484971 6.8542228 0.99102682 3
12.461445 6.8441329 0 9
13.933054 11.231915 0.62374121 8
11.815976 6.4818339 -0.93762422 21
13.872682 11.17924 -0.62405527 32
6.3751879 3.4921715 -1.0141354 25
5.7798438 4.6561275 -0.77380759 18
5.229948 2.8574324 -1.26046 22
4.5880394 3.6967971 -1.0327733 21
4.4760089 2.4361312 -1.450348 13
3.7986076 3.0624251 -1.2069502 29
12.644892 8.1478949 0.2619606 4
14.808666 13.759689 1.0575788 10
12.609837 8.1221972 -0.78686816 21
14.774168 13.722817 -0.35136339 20
6.3033118 4.0579281 -0.91485155 25
6.9984617 6.4994407 -0.83089566 9
4.9947391 3.2146769 -1.1456558 20
4.3703241 4.0606008 -0.94042492 20
4.1671395 2.6792774 -1.317178 22
3.4238088 3.1875532 -1.0702716 24
13.639932 7.4693427 3.2952909 25
14.603886 8.0100889 2.3360202 1
14.435334 7.9242291 1.1461955 15
15.49682 8.510087 0 1
13.933054 11.231915 0.62374121 8
11.815976 6.4818339 -0.93762422 21
13.872682 11.17924 -0.62405527 32
6.3751879 3.4921715 -1.0141354 25
5.7798438 4.6561275 -0.77380759 18
5.229948 2.8574324 -1.26046 22
4.5880394 3.6967971 -1.0327733 21
4.4760089 2.4361312 -1.450348 13
3.7986076 3.0624251 -1.2069502 29
12.644892 8.1478949 0.2619606 4
14.808666 13.759689 1.0575788 10
12.609837 8.1221972 -0.78686816 21
14.774168 13.722817 -0.35136339 20
6.3033118 4.0579281 -0.91485155 25
6.9984617 6.4994407 -0.83089566 9
4.9947391 3.2146769 -1.1456558 20
4.3703241 4.0606008 -0.94042492 20
4.1671395 2.6792774 -1.317178 22
3.4238088 3.1875532 -1.0702716 24
13.473762 7.3143497 3.2485492 26
14.694053 7.9896059 2.3457625 4
12.435519 6.7679048 0.98511231 2
12.446918 6.776906 0 1
13.864889 11.093349 0.6188553 23
8.8594837 4.8190346 -0.70104373 4
13.841375 11.070569 -0.62081087 23
6.5468206 3.5549366 -1.0394714 25
5.8318186 4.6628704 -0.77849579 25
5.2145743 2.8242877 -1.2542175 20
4.6150136 3.6907246 -1.0358121 24
4.4870238 2.4208491 -1.4510367 13
3.826848 3.06213 -1.2123896 28
12.605165 8.0570755 0.26052079 5
14.772764 13.625747 1.0514294 9
12.580611 8.0382948 -0.78319246 20
14.734337 13.585527 -0.34922546 22
6.0294952 3.8505552 -0.87286627 24
7.0368781 6.4872584 -0.83263534 10
5.0354533 3.2148304 -1.1523221 19
4.3942466 4.0529332 -0.94238251 20
4.195261 2.6756673 -1.3229976 22
3.4426188 3.1816037 -1.0725179 27
13.473762 7.3143497 3.2485492 26
14.694053 7.9896059 2.3457625 4
14.497144 7.8891406 1.1488049 18
15.29074 8.3241901 0 1
13.864889 11.093349 0.6188553 23
11.928438 6.4840317 -0.94458252 16
13.841375 11.070569 -0.62081087 23
6.5468206 3.5549366 -1.0394714 25
5.8318224 4.6628656 -0.77849579 25
5.2145743 2.8242877 -1.2542175 20
4.6156573 3.6899192 -1.0358121 24
4.4870238 2.4208491 -1.4510367 13
3.8273826 3.0614622 -1.2123896 28
12.605165 8.0570755 0.26052079 5
14.775142 13.623169 1.0514294 9
12.580611 8.0382948 -0.78319246 20
14.736708 13.582955 -0.34922546 22
6.0294952 3.8505552 -0.87286627 24
7.0380111 6.4860301 -0.83263534 10
5.0360146 3.2139513 -1.1523221 19
4.3949537 4.0521665 -0.94238251 20
4.1957273 2.6749349 -1.3229976 22
3.4426188 3.1816037 -1.0725179 27
14.745826 7.9511847 2.3495896 3
12.465653 6.7280078 0.98563421 2
12.450697 6.722733 0 6
13.831148 10.987372 0.61562705 5
8.7255878 4.7049222 -0.68904078 4
13.784073 10.946043 -0.61651433 20
6.5068579 3.5039198 -1.0311416 27
6.558701 5.2069373 -0.87356138 22
5.3041368 2.8488226 -1.2734652 22
4.6458602 3.6875665 -1.0397192 21
4.4954467 2.4051716 -1.4510367 14
3.8418438 3.0511022 -1.2135984 27
12.563549 7.9688516 0.25908095 6
14.725036 13.482134 1.0444949 9
12.545334 7.9542313 -0.77925414 20
14.693699 13.448715 -0.3470875 21
6.2944546 3.9888186 -0.90937519 24
7.0165324 6.4210491 -0.82741636 12
5.0575719 3.2029157 -1.1547029 20
4.4236302 4.0501499 -0.94551468 21
4.2111626 2.664144 -1.3249376 25
3.5182593 3.2289293 -1.0927328 19
14.745826 7.9511847 2.3495896 3
14.531178 7.8420391 1.1493267 18
15.187695 8.1995373 0 1
13.831148 10.987372 0.61562705 5
12.033302 6.4893985 -0.95119286 17
13.784073 10.946043 -0.61651433 20
6.5068579 3.5039198 -1.0311416 27
6.5586977 5.2069426 -0.87356138 22
5.3041368 2.8488226 -1.2734652 22
4.6452165 3.6883774 -1.0397192 21
4.4954467 2.4051716 -1.4510367 14
3.841311 3.0517726 -1.2135984 27
12.563549 7.9688516 0.25908095 6
14.722682 13.484704 1.0444949 9
12.545334 7.9542313 -0.77925414 20
14.691352 13.451279 -0.3470875 21
6.2944546 3.9888186 -0.90937519 24
7.0154119 6.4222736 -0.82741636 12
5.057013 3.2037983 -1.1547029 20
4.4229236 4.0509224 -0.94551468 21
4.2106977 2.6648791 -1.3249376 25
3.5182593 3.2289293 -1.0927328 19
13.853319 7.3986421 3.3280103 24
14.75246 7.8917365 2.3464582 1
12.452712 6.6678071 0.98285091 2
12.442065 6.6648908 0 2
13.771405 10.865604 0.61135191 4
11.924994 6.3800855 -0.94092947 25
13.692794 10.799687 -0.61081475 21
6.5686817 3.5091262 -1.0391243 24
6.6130176 5.2144246 -0.87851 21
5.4063859 2.8805974 -1.2958341 23
4.6265001 3.6485496 -1.0327733 19
4.5076456 2.3925009 -1.4524142 14
3.8399875 3.0299966 -1.2099721 25
13.109897 8.2544966 3.5628903 1
12.553945 7.9045086 0.25833923 5
14.678697 13.355141 1.0382144 7
12.518817 7.8793459 -0.77597225 21
14.645287 13.320057 -0.34494957 22
6.3349562 3.9850943 -0.91333032 25
7.0753469 6.4341803 -0.83198291 15
5.0613751 3.1830928 -1.1532744 18
4.4107809 4.0129504 -0.94003344 18
4.2133756 2.6470492 -1.3229976 24
3.6080897 3.2895365 -1.11744 21
13.853319 7.3986421 3.3280103 24
14.75246 7.8917365 2.3464582 1
14.583489 7.8079271 1.1514142 16
15.221414 8.152667 0 14
13.771405 10.865604 0.61135191 4
11.924994 6.3800855 -0.94092947 25
13.692794 10.799687 -0.61081475 21
6.5680695 3.5102727 -1.0391243 24
6.6130176 5.2144246 -0.87851 21
5.4058824 2.881541 -1.2958341 23
4.6265001 3.6485496 -1.0327733 19
4.5072284 2.3932874 -1.4524142 14
3.8399875 3.0299966 -1.2099721 25
13.108456 8.2567844 3.5628903 1
12.552564 7.9066997 0.25833923 5
14.678697 13.355141 1.0382144 7
12.517442 7.8815308 -0.77597225 21
14.642965 13.322607 -0.34494957 22
6.3342609 3.9861999 -0.91333032 25
7.074224 6.4354148 -0.83198291 15
5.0613751 3.1830928 -1.1532744 18
4.4100809 4.01372 -0.94003344 18
4.212914 2.6477845 -1.3229976 24
3.6075156 3.2901664 -1.11744 21
13.997067 7.4095688 3.356055 26
12.324718 6.5358281 1.9557298 1
12.472661 6.6197839 0.982503 2
12.446534 6.6086974 0 13
13.722624 10.745728 0.60742569 4
8.9799795 4.7633638 -0.70661032 4
13.655562 10.689357 -0.60739505 19
6.6925011 3.5452206 -1.0568248 26
6.6360006 5.1932178 -0.87903088 1
5.2887998 2.7943997 -1.2651418 21
4.6398416 3.6315682 -1.0327733 20
4.5095863 2.373399 -1.450348 12
3.7384219 2.9276085 -1.1743137 26
13.188217 8.2396574 3.5763671 6
12.471218 7.791779 0.25607041 13
14.633076 13.215889 1.0315416 6
12.467891 7.7866764 -0.77111501 25
14.593399 13.180031 -0.34263712 21
6.3404074 3.9577031 -0.91211337 22
7.0404878 6.3576722 -0.82524186 18
5.0979996 3.1801012 -1.1589885 21
4.4558873 4.0256929 -0.94668925 19
4.2492371 2.6489246 -1.3314039 21
3.6412032 3.2965624 -1.1241784 20
13.997067 7.4095688 3.356055 26
15.021914 7.965126 2.3847311 1
14.574554 7.7345591 1.1484569 24
15.244567 8.0933084 0 1
13.722624 10.745728 0.60742569 4
12.046371 6.3856134 -0.94858348 13
13.655562 10.689357 -0.60739505 19
6.6931195 3.5440524 -1.0568248 26
6.636004 5.1932125 -0.87903088 1
5.2892876 2.7934766 -1.2651418 21
4.6404748 3.630758 -1.0327733 20
4.5100002 2.372612 -1.450348 12
3.7389326 2.9269562 -1.1743137 26
13.189655 8.2373562 3.5763671 6
12.472578 7.7896032 0.25607041 13
14.635381 13.213334 1.0315416 6
12.46925 7.7845001 -0.77111501 25
14.597996 13.174941 -0.34263712 21
6.3410978 3.9565961 -0.91211337 22
7.042706 6.3552146 -0.82524186 18
5.0985546 3.1792114 -1.1589885 21
4.4572926 4.024137 -0.94668925 19
4.2501616 2.6474414 -1.3314039 21
3.6417782 3.295927 -1.1241784 20
14.063994 7.3822489 3.3659229 26
12.292668 6.4639778 1.9470315 2
12.478033 6.5669188 0.98111129 3
12.440765 6.5500784 0 9
13.66538 10.624143 0.60323775 4
8.8119125 4.6330061 -0.691998 3
13.588247 10.560356 -0.60274774 19
6.6901011 3.5126195 -1.0543953 22
6.6639066 5.1776462 -0.88033313 18
5.3575158 2.8055842 -1.2791874 22
4.6589522 3.6190708 -1.0340757 21
4.5225186 2.3590739 -1.4517254 12
3.8582659 2.9987879 -1.2087634 22
13.170699 8.1617565 3.563452 9
12.491193 7.7407522 0.25589588 37
14.6015 13.090487 1.0259155 5
12.464511 7.7212105 -0.76914591 36
14.560147 13.048814 -0.34067374 22
6.4139528 3.970999 -0.92063212 24
7.0982194 6.3605242 -0.82915598 15
5.1096215 3.1613946 -1.1589885 19
4.4161949 3.959065 -0.93494368 20
4.2717052 2.6402032 -1.3352835 21
3.6405883 3.2717838 -1.1202476 20
14.063994 7.3822489 3.3659229 26
14.977305 7.8746395 2.3732491 3
14.63016 7.6987286 1.1507185 6
14.898818 7.8433232 0 1
13.66538 10.624143 0.60323775 4
12.045405 6.3340311 -0.94684398 15
13.588247 10.560356 -0.60274774 19
6.6894879 3.5137873 -1.0543953 22
6.6639028 5.1776509 -0.88033313 18
5.3570256 2.8065193 -1.2791874 22
4.6583204 3.619884 -1.0340757 21
4.5221066 2.3598633 -1.4517254 12
3.8577423 2.9994612 -1.2087634 22
13.169274 8.1640549 3.563452 9
12.489842 7.7429318 0.25589588 37
14.599214 13.093036 1.0259155 5
12.463162 7.7233858 -0.76914591 36
14.555595 13.053891 -0.34067374 22
6.41326 3.9721184 -0.92063212 24
7.0959978 6.3630018 -0.82915598 15
5.1090693 3.1622863 -1.1589885 19
4.4148126 3.9606066 -0.93494368 20
4.2707825 2.6416943 -1.3352835 21
3.640017 3.2724192 -1.1202476 20
12.465514 6.5021338 1.9710388 3
12.424562 6.4862852 0.97519684 2
12.471283 6.5134139 0 10
13.609575 10.508517 0.59922433 4
11.962399 6.2398739 -0.93866801 22
13.536176 10.448057 -0.59888959 21
6.7252626 3.5041554 -1.0582131 26
5.2230458 2.7144184 -1.2448539 22
4.6761446 3.6089315 -1.0353781 18
4.5235019 2.3415456 -1.4496593 13
3.8906999 3.0044534 -1.2160158 25
13.254374 8.1560822 3.5791748 10
12.532482 7.7119503 0.25624496 4
14.528864 12.943223 1.0179343 5
12.45468 7.6610889 -0.7670455 40
14.484979 12.904099 -0.33801222 24
6.451766 3.9664185 -0.92428297 24
7.1170597 6.3394356 -0.82915598 14
5.1571736 3.1684413 -1.1675594 20
4.3229203 3.8522272 -0.91262722 18
4.2959862 2.6376202 -1.3404566 20
3.6780813 3.2846966 -1.1286706 20
14.851855 7.7459736 2.3492417 8
16.81811 8.7782974 1.3208473 31
14.762954 7.7094345 0 1
13.609575 10.508517 0.59922433 4
11.962399 6.2398739 -0.93866801 22
13.536176 10.448057 -0.59888959 21
6.7252626 3.5041554 -1.0582131 26
5.2230458 2.7144184 -1.2448539 22
4.6761446 3.6089315 -1.0353781 18
4.5235019 2.3415456 -1.4496593 13
3.8906999 3.0044534 -1.2160158 25
13.254374 8.1560822 3.5791748 10
12.532482 7.7119503 0.25624496 4
14.528864 12.943223 1.0179343 5
12.45468 7.6610889 -0.7670455 40
14.484979 12.904099 -0.33801222 24
6.451766 3.9664185 -0.92428297 24
7.1170597 6.3394356 -0.82915598 14
5.1571736 3.1684413 -1.1675594 20
4.3229203 3.8522272 -0.91262722 18
4.2959862 2.6376202 -1.3404566 20
3.6780813 3.2846966 -1.1286706 20
14.539017 7.5024509 3.4671967 26
12.643229 6.5359378 1.9953941 8
12.519145 6.4773564 0.98076338 18
12.408471 6.4228668 0 10
13.558766 10.390167 0.59529811 3
12.009563 6.2085781 -0.94058156 22
13.477201 10.323915 -0.59459305 21
6.7534637 3.4874263 -1.0606426 30
5.6775379 4.3476601 -0.74541819 24
5.2177372 2.6874299 -1.2412122 25
4.4411774 3.4015524 -0.9802447 20
4.5341926 2.3260455 -1.450348 14
3.919009 3.0034609 -1.2214553 28
13.290416 8.1112528 3.5808594 22
12.490249 7.6229992 0.25480512 1
14.492064 12.815441 1.0120465 24
12.444311 7.59199 -0.76468253 39
14.447931 12.776388 -0.33604878 27
6.5234714 3.9776118 -0.9324975 23
7.1551676 6.3265128 -0.83089566 18
4.9507523 3.0167637 -1.1180382 20
4.4552917 3.9411507 -0.9376843 22
4.3262553 2.6344104 -1.3469229 21
3.7283459 3.3051658 -1.1404626 21
14.539017 7.5024509 3.4671967 26
16.602379 8.5811586 2.6216731 5
16.72168 8.6501637 1.3107578 1
14.815536 7.6679082 0 1
13.558766 10.390167 0.59529811 3
12.010646 6.2064819 -0.94058156 22
13.477201 10.323915 -0.59459305 21
6.7540722 3.4862473 -1.0606426 30
5.6775413 4.3476553 -0.74541819 24
5.2182059 2.6865191 -1.2412122 25
4.441771 3.4007773 -0.9802447 20
4.5345988 2.325254 -1.450348 14
3.919533 3.0027771 -1.2214553 28
13.291832 8.1089344 3.5808594 22
14.546627 8.8742418 0.29682177 1
14.4943 12.812912 1.0120465 24
12.445636 7.589818 -0.76468253 39
14.452386 12.771349 -0.33604878 27
6.5241656 3.9764736 -0.9324975 23
7.1573763 6.3240151 -0.83089566 18
4.9512796 3.0158994 -1.1180382 20
4.4566674 3.9395952 -0.9376843 22
4.3271747 2.6328998 -1.3469229 21
3.7289228 3.3045149 -1.1404626 21
14.445361 7.3904252 3.4386322 26
12.835635 6.5786633 2.0221848 13
12.435149 6.3790088 0.97241354 2
12.388548 6.3578386 0 8
13.503491 10.273177 0.59128469 4
12.030018 6.163383 -0.94040751 22
13.419696 10.205712 -0.5904718 23
6.7617908 3.4603965 -1.0599484 28
6.0271196 4.5822139 -0.78943485 18
5.314702 2.7126935 -1.2620206 22
4.5384011 2.3072367 -1.4489707 14
3.937712 2.9949546 -1.2238729 29
13.326308 8.0662708 3.5825438 35
12.577984 7.6134048 0.2560268 6
14.46953 12.701285 1.0072054 5
12.429331 7.5204844 -0.76205701 36
14.417983 12.651561 -0.33421627 27
6.5528717 3.9626606 -0.93462718 23
7.1981201 6.3154268 -0.83307016 16
4.5111895 3.9598811 -0.94629771 19
4.3508139 2.6265106 -1.3514493 17
3.7641907 3.312422 -1.1477624 20
14.445361 7.3904252 3.4386322 26
16.868002 8.6439075 2.6589019 1
16.771748 8.6019802 1.3123233 29
12.388548 6.3578386 0 8
13.503491 10.273177 0.59128469 4
12.028942 6.165482 -0.94040751 22
13.419696 10.205712 -0.5904718 23
6.7617908 3.4603965 -1.0599484 28
6.0271163 4.5822191 -0.78943485 18
5.314702 2.7126935 -1.2620206 22
4.5384011 2.3072367 -1.4489707 14
3.9371891 2.9956419 -1.2238729 29
13.326308 8.0662708 3.5825438 35
14.44065 8.7405872 0.29402941 1
14.467312 12.70381 1.0072054 5
12.429331 7.5204844 -0.76205701 36
14.415775 12.654078 -0.33421627 27
6.5528717 3.9626606 -0.93462718 23
7.1970177 6.3166828 -0.83307016 16
4.510498 3.9606683 -0.94629771 19
4.3503547 2.62727 -1.3514493 17
3.7641907 3.312422 -1.1477624 20
14.38382 7.2957296 3.4178581 23
12.666476 6.4363046 1.9919149 21
12.457341 6.3355641 0.97241354 16
12.453008 6.3360834 0 6
13.443581 10.153687 0.58709675 4
8.8104658 4.4783249 -0.68695325 3
13.373494 10.097074 -0.58687675 23
6.8489175 3.4748175 -1.0717487 24
6.0450587 4.5626507 -0.78969532 21
5.2455649 2.6544344 -1.2432932 20
4.5442805 2.2903008 -1.448282 14
3.9398816 2.9760284 -1.2214553 27
13.354383 8.0197048 3.5825438 28
14.080921 8.4592361 2.5903082 7
15.586769 9.363677 1.5877596 9
12.533763 7.5269933 0.25458696 7
14.415621 12.569532 1.0005326 4
12.431959 7.4629211 -0.76061296 38
14.382617 12.536322 -0.33242738 25
6.6411476 3.9844286 -0.9452756 23
7.2152696 6.2882481 -0.83263534 16
5.2663941 3.1587827 -1.1847013 20
4.5373149 3.9562683 -0.94903833 19
4.380219 2.6244738 -1.3579155 19
3.7317388 3.2607508 -1.1342858 21
14.38382 7.2957296 3.4178581 23
12.666476 6.4363046 1.9919149 21
16.806118 8.5456438 1.3126713 1
12.453008 6.3360834 0 6
13.443581 10.153687 0.58709675 4
12.143786 6.1708789 -0.94771373 14
13.373494 10.097074 -0.58687675 23
6.8489175 3.4748175 -1.0717487 24
6.0450587 4.5626507 -0.78969532 21
5.2455649 2.6544344 -1.2432932 20
4.5442805 2.2903008 -1.448282 14
3.9398816 2.9760284 -1.2214553 27
13.354383 8.0197048 3.5825438 28
14.080921 8.4592361 2.5903082 7
15.586769 9.363677 1.5877596 9
14.366063 8.6270809 0.29189149 1
14.415621 12.569532 1.0005326 4
12.431959 7.4629211 -0.76061296 38
14.382617 12.536322 -0.33242738 25
6.6411476 3.9844286 -0.9452756 23
7.2152696 6.2882481 -0.83263534 16
5.2663941 3.1587827 -1.1847013 20
4.5373149 3.9562683 -0.94903833 19
4.380219 2.6244738 -1.3579155 19
3.7317388 3.2607508 -1.1342858 21
14.374239 7.2279091 3.4095485 25
12.799431 6.4477086 2.0093114 23
12.45488 6.2796974 0.97049999 17
12.437098 6.2734461 0 4
13.390995 10.040739 0.58325779 4
12.089513 6.0903258 -0.94179922 21
13.304708 9.9723959 -0.58231711 23
6.8145452 3.4275529 -1.0644603 26
6.0112138 4.5042348 -0.78318393 19
5.3488164 2.6831882 -1.2656621 24
4.811389 3.6059854 -1.0540452 20
4.5543985 2.2754965 -1.4489707 12
3.9463654 2.9593451 -1.2202466 26
12.783707 7.6164927 3.4219472 25
14.146425 8.4315224 2.5969419 14
15.649312 9.3270597 1.5908103 6
12.508419 7.452497 0.2535398 7
14.387702 12.457022 0.99556065 3
12.412887 7.3926582 -0.75785619 34
14.339366 12.410772 -0.33042035 26
6.4737487 3.85338 -0.91941512 24
7.0319867 6.0852828 -0.80893272 21
5.3027015 3.1554339 -1.1904154 22
4.5455003 3.9355533 -0.94786376 20
4.385201 2.6067014 -1.3566222 21
3.6033673 3.1262386 -1.0916097 21
14.374239 7.2279091 3.4095485 25
12.799431 6.4477086 2.0093114 23
16.88039 8.5093699 1.3161504 1
15.678611 7.9073038 0 10
13.390995 10.040739 0.58325779 4
12.109562 6.1004181 -0.94336486 21
13.304708 9.9723959 -0.58231711 23
6.8145452 3.4275529 -1.0644603 26
6.0112138 4.5042348 -0.78318393 19
5.3488164 2.6831882 -1.2656621 24
4.811389 3.6059854 -1.0540452 20
4.5543985 2.2754965 -1.4489707 12
3.9463654 2.9593451 -1.2202466 26
12.783707 7.6164927 3.4219472 25
14.146425 8.4315224 2.5969419 14
15.649312 9.3270597 1.5908103 6
14.574332 8.6830521 0.29551286 1
14.387702 12.457022 0.99556065 3
12.412887 7.3926582 -0.75785619 34
14.339366 12.410772 -0.33042035 26
6.4737487 3.85338 -0.91941512 24
7.0319867 6.0852828 -0.80893272 21
5.3027015 3.1554339 -1.1904154 22
4.5455003 3.9355533 -0.94786376 20
4.385201 2.6067014 -1.3566222 21
3.6033673 3.1262386 -1.0916097 21
14.321521 7.1420245 3.391371 24
12.760938 6.3753719 1.9999173 26
12.457789 6.2294431 0.9691084 8
12.489139 6.2478185 0 2
13.324031 9.9216547 0.57889539 4
12.136419 6.0635695 -0.9438867 21
13.251533 9.8640604 -0.57854664 22
6.6929102 3.338701 -1.0436362 25
6.1238384 4.5570354 -0.79594618 25
5.3773952 2.6752248 -1.2703439 21
4.8055496 3.5767746 -1.0501381 21
4.5597644 2.259316 -1.448282 12
3.9464324 2.9389935 -1.2172246 23
12.771147 7.5517435 3.4118397 31
14.099917 8.3405704 2.5832841 24
15.727315 9.3030043 1.5956037 9
12.474968 7.3766322 0.25236177 6
14.341878 12.334336 0.98954201 4
12.415839 7.3387532 -0.7565434 35
14.304642 12.297954 -0.32867509 25
6.5570045 3.8735256 -0.9294551 26
7.2428021 6.2259946 -0.83089566 20
5.3194766 3.1415744 -1.1918439 21
4.5678806 3.9285157 -0.94982141 20
4.4083834 2.6007299 -1.3611486 22
3.8128512 3.2862229 -1.1522547 24
14.321521 7.1420245 3.391371 24
12.760938 6.3753719 1.9999173 26
16.91744 8.4578056 1.3168463 1
15.689093 7.8474436 0 1
13.324031 9.9216547 0.57889539 4
12.137477 6.0614514 -0.9438867 21
13.251533 9.8640604 -0.57854664 22
6.6929102 3.338701 -1.0436362 25
6.1238418 4.5570302 -0.79594618 25
5.3773952 2.6752248 -1.2703439 21
4.8061738 3.5759356 -1.0501381 21
4.5597644 2.259316 -1.448282 12
3.9469452 2.9383044 -1.2172246 23
12.771147 7.5517435 3.4118397 31
14.099917 8.3405704 2.5832841 24
15.727315 9.3030043 1.5956037 9
14.61811 8.6435776 0.29581827 1
14.34403 12.331833 0.98954201 4
12.415839 7.3387532 -0.7565434 35
14.306788 12.295457 -0.32867509 25
6.5570045 3.8735256 -0.9294551 26
5.320025 3.1406462 -1.1918439 21
4.5685663 3.9277186 -0.94982141 20
4.4088373 2.5999606 -1.3611486 22
3.8128512 3.2862229 -1.1522547 24
14.248932 7.0407624 3.3680003 26
12.398109 6.1375623 1.939377 31
12.424662 6.1560774 0.96475947 7
12.462669 6.1775899 0 3
13.27592 9.81038 0.57523096 4
12.150669 6.0125027 -0.94319081 26
13.191146 9.7441578 -0.57433778 23
6.9870543 3.4533134 -1.087714 27
6.1625004 4.550808 -0.7988112 22
5.3542533 2.6393034 -1.2625407 22
4.890533 3.6109672 -1.0657665 20
4.5701733 2.2436457 -1.4489707 14
3.9596388 2.9252608 -1.217829 23
12.763014 7.4839406 3.4022937 23
14.05584 8.2451124 2.5696263 26
15.744122 9.23522 1.5938607 10
12.460949 7.3068409 0.25153279 5
14.30559 12.20785 0.98378503 3
12.425423 7.2831006 -0.75549322 35
14.262397 12.166671 -0.32662442 25
6.6546702 3.8983657 -0.94132042 22
5.3346815 4.5486598 -0.60909152 6
5.3081989 3.1074934 -1.186606 21
4.5716696 3.9013216 -0.94747221 19
4.4245925 2.5874393 -1.3630885 23
3.845216 3.2896645 -1.1584315 25
14.248932 7.0407624 3.3680003 26
12.398109 6.1375623 1.939377 31
12.424662 6.1560774 0.96475947 7
14.758924 7.3149643 0 9
13.27592 9.81038 0.57523096 4
12.150669 6.0125027 -0.94319081 26
13.191146 9.7441578 -0.57433778 23
6.9870543 3.4533134 -1.087714 27
6.1625004 4.550808 -0.7988112 22
5.3542533 2.6393034 -1.2625407 22
4.890533 3.6109672 -1.0657665 20
4.5701733 2.2436457 -1.4489707 14
3.9596388 2.9252608 -1.217829 23
12.763014 7.4839406 3.4022937 23
14.05584 8.2451124 2.5696263 26
15.744122 9.23522 1.5938607 10
14.580687 8.549489 0.29442206 1
14.30559 12.20785 0.98378503 3
12.425423 7.2831006 -0.75549322 35
14.262397 12.166671 -0.32662442 25
6.6546702 3.8983657 -0.94132042 22
7.385983 6.3000178 -0.84459531 1
5.3081989 3.1074934 -1.186606 21
4.5716696 3.9013216 -0.94747221 19
4.4245925 2.5874393 -1.3630885 23
3.845216 3.2896645 -1.1584315 25
14.284405 6.996357 3.3705971 26
12.390561 6.0800791 1.9348539 35
12.441597 6.1104722 0.96441156 7
12.412346 6.0987916 0 4
13.19325 9.6782494 0.57017052 6
12.200696 5.9843211 -0.94545227 26
13.15658 9.6478109 -0.57135648 22
6.9723783 3.4158461 -1.0835491 26
6.1743383 4.5263281 -0.79829025 22
5.2645326 2.5723608 -1.2391316 21
4.8991365 3.5909615 -1.0648983 21
4.5758147 2.2266293 -1.448282 13
3.9580925 2.9028087 -1.2142028 25
12.852237 7.4760833 3.4191396 25
14.10161 8.2059326 2.5727482 27
15.668629 9.1175871 1.5829662 19
12.531755 7.2896881 0.25244907 6
14.271943 12.093264 0.97855151 4
12.433502 7.2296457 -0.75444299 35
14.224687 12.048936 -0.32479188 26
6.6746745 3.8788519 -0.9422332 25
7.2122569 6.108314 -0.82219744 19
5.3232589 3.0914092 -1.1875583 25
4.6153808 3.9109025 -0.95373648 22
4.4503112 2.5816677 -1.3682615 25
3.858531 3.277801 -1.158993 24
14.284405 6.996357 3.3705971 26
12.390561 6.0800791 1.9348539 35
16.914841 8.3057661 1.3119755 1
14.800076 7.2711139 0 9
13.19325 9.6782494 0.57017052 6
12.199651 5.9864507 -0.94545227 26
13.15658 9.6478109 -0.57135648 22
6.9723783 3.4158461 -1.0835491 26
6.174335 4.5263333 -0.79829025 22
5.2645326 2.5723608 -1.2391316 21
4.89851 3.5918167 -1.0648983 21
4.5758147 2.2266293 -1.448282 13
3.9575858 2.9034996 -1.2142028 25
12.852237 7.4760833 3.4191396 25
14.10161 8.2059326 2.5727482 27
15.668629 9.1175871 1.5829662 19
14.753055 8.5814772 0.29730174 1
14.269833 12.095754 0.97855151 4
12.433502 7.2296457 -0.75444299 35
14.222584 12.051418 -0.32479188 26
6.6746745 3.8788519 -0.9422332 25
7.2111907 6.1095724 -0.82219744 19
5.3227191 3.0923378 -1.1875583 25
4.6146979 3.9117084 -0.95373648 22
4.4498606 2.5824444 -1.3682615 25
3.858531 3.277801 -1.158993 24
14.333926 6.9617624 3.3768291 24
12.312692 5.9913254 1.9195448 31
12.45058 6.0637245 0.96354181 3
12.637047 6.1571841 0 26
13.126328 9.5623474 0.56589532 8
12.194763 5.9339657 -0.94353878 23
13.08147 9.526165 -0.56670916 24
6.9680748 3.3851416 -1.0811197 26
6.1591654 4.4838748 -0.79438347 21
5.2576246 2.5474362 -1.2354901 20
4.9243231 3.5857027 -1.0679371 22
4.5853391 2.2124858 -1.4489707 13
3.8907499 2.8346167 -1.1906319 21
12.997224 7.502831 3.4511466 25
14.182208 8.1899929 2.5825038 18
15.763481 9.1029339 1.5895028 9
12.490911 7.210608 0.25114012 5
14.237309 11.987247 0.97357953 4
12.437945 7.1771469 -0.75326151 36
14.176429 11.931736 -0.32282847 28
6.6724515 3.8480225 -0.94010353 24
5.6333051 4.739419 -0.63975269 5
5.3648419 3.0930495 -1.194701 23
4.6370826 3.9043427 -0.95569414 21
4.4625859 2.5700829 -1.3695548 25
3.8600774 3.2571244 -1.1561854 23
14.333926 6.9617624 3.3768291 24
12.312692 5.9913254 1.9195448 31
16.964716 8.2605419 1.313715 16
14.905026 7.2613926 0 1
13.126328 9.5623474 0.56589532 8
12.194763 5.9339657 -0.94353878 23
13.08147 9.526165 -0.56670916 24
6.967484 3.3863578 -1.0811197 26
6.1591654 4.4838748 -0.79438347 21
5.2571797 2.5483537 -1.2354901 20
4.9243231 3.5857027 -1.0679371 22
4.5849528 2.2132859 -1.4489707 13
3.8907499 2.8346167 -1.1906319 21
12.995914 7.5050998 3.4511466 25
14.180779 8.1924677 2.5825038 18
15.761892 9.1056862 1.5895028 9
14.803753 8.5488348 0.29778168 1
14.237309 11.987247 0.97357953 4
12.436693 7.1793175 -0.75326151 36
14.17435 11.934205 -0.32282847 28
6.6717796 3.8491869 -0.94010353 24
7.3065286 6.1510835 -0.83089566 1
5.3648419 3.0930495 -1.194701 23
4.6364007 3.9051518 -0.95569414 21
4.4621372 2.5708618 -1.3695548 25
3.859509 3.2577977 -1.1561854 23
14.326287 6.8932834 3.3690388 23
12.278808 5.9192967 1.9108465 34
12.416558 5.990972 0.95919287 32
12.44111 6.0054727 0 27
13.078278 9.4541492 0.56231809 26
12.133298 5.849185 -0.93710238 24
13.023151 9.4108286 -0.56267565 29
7.0200119 3.3801098 -1.0873669 26
6.2098141 4.4860311 -0.7988112 22
4.9394269 3.5690722 -1.0683712 24
4.5973721 2.1985366 -1.450348 15
4.0308218 2.9141963 -1.230521 20
13.055047 7.4755721 3.4595695 26
14.384276 8.2398405 2.6141119 21
15.73897 9.0156746 1.5838376 25
12.470449 7.1408834 0.25022388 1
14.196877 11.864523 0.96782267 3
12.436921 7.1188073 -0.75168616 36
14.143209 11.819641 -0.32112688 29
6.7353883 3.8530364 -0.94710106 26
7.3443079 6.1370459 -0.83263534 19
5.3143444 3.0380592 -1.180892 21
4.6658282 3.9008141 -0.95882624 20
4.4904056 2.5652652 -1.3753744 22
3.875155 3.2467625 -1.1573085 22
14.326287 6.8932834 3.3690388 23
12.278808 5.9192967 1.9108465 34
12.416558 5.990972 0.95919287 32
12.44111 6.0054727 0 27
13.078278 9.4541492 0.56231809 26
12.134319 5.8470674 -0.93710238 24
13.023151 9.4108286 -0.56267565 29
7.0206017 3.3788843 -1.0873669 26
6.2098174 4.4860258 -0.7988112 22
4.9400496 3.5682099 -1.0683712 24
4.5977559 2.1977339 -1.450348 15
4.0313306 2.9134929 -1.230521 20
13.056353 7.4732933 3.4595695 26
14.385715 8.2373304 2.6141119 21
15.740543 9.0129271 1.5838376 25
14.83647 8.49193 0.29778168 1
14.198947 11.862043 0.96782267 3
12.438164 7.1166372 -0.75168616 36
14.147331 11.814709 -0.32112688 29
6.7360606 3.851861 -0.94710106 26
7.3464494 6.1344814 -0.83263534 19
5.3148742 3.0371315 -1.180892 21
4.6671896 3.8991849 -0.95882624 20
4.4913006 2.5636973 -1.3753744 22
3.8757217 3.2460859 -1.1573085 22
14.50038 6.9147716 3.4043548 17
12.489297 5.9670596 1.9404209 35
12.405891 5.9325404 0.95675755 47
12.403354 5.9339743 0 50
13.09496 9.3967848 0.56162012 5
12.093883 5.7756753 -0.93240559 28
13.003143 9.3274422 -0.56039584 32
7.0189419 3.3479691 -1.0852845 28
6.1082687 4.3802514 -0.78370488 22
5.5650849 2.6471496 -1.3036371 22
4.9264708 3.5322859 -1.0627277 25
4.6010537 2.1796174 -1.4489707 12
4.0552692 2.9093075 -1.2347518 24
13.008207 7.3855824 3.4399159 28
14.418676 8.1895027 2.6148925 19
15.674453 8.9025869 1.5740327 31
12.450889 7.0692167 0.24930762 3
14.163419 11.748631 0.96258903 4
12.443386 7.0620875 -0.75050467 37
14.107687 11.698221 -0.31929436 28
6.7537823 3.8307719 -0.9477095 27
7.3505697 6.0944858 -0.83067822 17
5.3190374 3.0149317 -1.1794635 20
4.6693769 3.8734024 -0.95647717 22
4.5191388 2.5587068 -1.381194 20
3.8963876 3.240335 -1.1601161 25
14.50038 6.9147716 3.4043548 17
12.489297 5.9670596 1.9404209 35
12.405891 5.9325404 0.95675755 47
12.403354 5.9339743 0 50
13.09496 9.3967848 0.56162012 5
12.092874 5.7777858 -0.93240559 28
13.003143 9.3274422 -0.56039584 32
7.0189419 3.3479691 -1.0852845 28
6.1082654 4.3802567 -0.78370488 22
5.5650849 2.6471496 -1.3036371 22
4.9258542 3.5331457 -1.0627277 25
4.6010537 2.1796174 -1.4489707 12
4.0547614 2.9100153 -1.2347518 24
13.008207 7.3855824 3.4399159 28
14.418676 8.1895027 2.6148925 19
15.674453 8.9025869 1.5740327 31
12.450889 7.0692167 0.24930762 3
14.161369 11.751103 0.96258903 4
12.443386 7.0620875 -0.75050467 37
14.105645 11.700683 -0.31929436 28
6.7537823 3.8307719 -0.9477095 27
7.3495064 6.095768 -0.83067822 17
5.3185105 3.0158601 -1.1794635 20
4.6687007 3.8742173 -0.95647717 22
4.518692 2.5594952 -1.381194 20
3.8963876 3.240335 -1.1601161 25
12.546524 5.9326859 2.9400539 14
12.515729 5.9287882 1.9414645 31
12.448034 5.9020467 0.95849705 10
12.447813 5.9045887 0 16
13.054841 9.3025532 0.55856639 3
12.116476 5.7397866 -0.9327535 30
12.974993 9.2422266 -0.55785298 26
7.0635867 3.3405342 -1.0904905 26
6.2483053 4.44943 -0.79985297 23
5.576046 2.6297224 -1.3041573 23
4.9816504 3.5482292 -1.0722783 24
4.5995517 2.1602685 -1.446216 10
4.0801883 2.9078228 -1.2395868 22
13.070834 7.363925 3.4500234 26
14.394122 8.1125498 2.6055269 24
15.747283 8.8750105 1.5783904 29
12.42199 6.9984484 0.24826047 2
14.123213 11.640544 0.95735544 4
12.438456 7.0048623 -0.74879807 38
14.059503 11.583884 -0.31737456 29
6.8399801 3.8497198 -0.95805371 25
7.3370147 6.0444264 -0.82698143 13
5.3220649 2.9945979 -1.178035 19
4.7005634 3.8744328 -0.9603923 21
4.5439992 2.553957 -1.386367 20
3.9052348 3.225843 -1.1595546 25
14.79298 6.9941015 3.4677157 1
12.515729 5.9287882 1.9414645 31
18.970526 8.9921808 1.4619255 2
12.447813 5.9045887 0 16
13.054841 9.3025532 0.55856639 3
12.117478 5.7376719 -0.9327535 30
12.974993 9.2422266 -0.55785298 26
7.0635867 3.3405342 -1.0904905 26
6.2483087 4.4494247 -0.79985297 23
5.576046 2.6297224 -1.3041573 23
4.9822688 3.5473597 -1.0722783 24
4.5995517 2.1602685 -1.446216 10
4.0806956 2.9071107 -1.2395868 22
13.070834 7.363925 3.4500234 26
14.394122 8.1125498 2.6055269 24
15.747283 8.8750105 1.5783904 29
14.950552 8.4226389 0.2989161 6
14.125245 11.638078 0.95735544 4
12.438456 7.0048623 -0.74879807 38
14.061523 11.581431 -0.31737456 29
6.8399801 3.8497198 -0.95805371 25
7.3380694 6.0431457 -0.82698143 13
5.3225875 2.993669 -1.178035 19
4.7012396 3.8736122 -0.9603923 21
4.5444446 2.5531638 -1.386367 20
3.9052348 3.225843 -1.1595546 25
12.506167 5.8576365 2.9255121 7
12.414091 5.8250737 1.9223284 19
12.460552 5.8521447 0.95780122 8
12.453529 5.8514881 0 4
13.029693 9.2128048 0.55603623 3
12.181333 5.7133288 -0.93605864 23
12.951657 9.1542225 -0.55539781 27
7.1946373 3.3702226 -1.1088852 26
6.2564535 4.420752 -0.7988112 24
5.5789981 2.6061673 -1.3025967 24
5.0153408 3.543288 -1.0766195 24
4.6139779 2.1464314 -1.448282 13
4.1230087 2.9145522 -1.249257 23
13.036055 7.2815237 3.4337392 26
14.365556 8.0272226 2.594991 24
15.794929 8.8257389 1.5799158 31
12.427917 6.9419041 0.24786778 2
14.084721 11.518249 0.9517293 4
12.437888 6.9446249 -0.74722278 36
14.028419 11.468097 -0.31567293 27
6.9602342 3.8838503 -0.97296149 26
5.8007865 4.7403235 -0.65106034 9
5.2584906 2.9323258 -1.1613692 19
4.7134953 3.8547909 -0.96000075 21
4.5812035 2.5517588 -1.3947731 22
3.9415038 3.2316093 -1.1668544 24
15.527284 7.2715449 3.6339087 7
12.414091 5.8250737 1.9223284 19
12.460552 5.8521447 0.95780122 8
12.453529 5.8514881 0 4
13.029693 9.2128048 0.55603623 3
12.181333 5.7133288 -0.93605864 23
12.951657 9.1542225 -0.55539781 27
7.1946373 3.3702226 -1.1088852 26
6.2564535 4.420752 -0.7988112 24
5.5789981 2.6061673 -1.3025967 24
5.0153408 3.543288 -1.0766195 24
4.6139779 2.1464314 -1.448282 13
4.1230087 2.9145522 -1.249257 23
13.036055 7.2815237 3.4337392 26
14.365556 8.0272226 2.594991 24
15.794929 8.8257389 1.5799158 31
15.0708 8.4177523 0.30070496 4
14.084721 11.518249 0.9517293 4
12.437888 6.9446249 -0.74722278 36
14.028419 11.468097 -0.31567293 27
6.9602342 3.8838503 -0.97296149 26
7.7225475 6.3127069 -0.867863 1
5.2584906 2.9323258 -1.1613692 19
4.7134953 3.8547909 -0.96000075 21
4.5812035 2.5517588 -1.3947731 22
3.9415038 3.2316093 -1.1668544 24
12.604186 5.849956 2.9436893 27
12.488233 5.8067393 1.9306786 22
13.618378 6.3375769 1.0453011 27
12.430812 5.7879448 0 1
12.990202 9.1170216 0.55298251 4
12.36406 5.7464042 -0.94858348 20
12.907863 9.0558548 -0.55215341 28
7.235558 3.3586235 -1.113397 29
6.3878555 4.4802976 -0.81365705 21
5.5969405 2.5907798 -1.3046775 23
5.0599232 3.5483878 -1.0835655 21
4.6214428 2.1303124 -1.448282 14
4.1609502 2.919661 -1.2577182 23
13.072048 7.2418766 3.4365468 25
14.309248 7.9303536 2.5797722 27
16.021698 8.8791828 1.5995257 20
12.458633 6.9021139 0.24799868 3
14.058958 11.415491 0.94728082 4
12.435843 6.8866553 -0.74564749 37
13.98881 11.35445 -0.31388405 28
6.7001591 3.7081895 -0.93462718 23
7.5473657 6.1255336 -0.84568262 9
5.223587 2.8890214 -1.1513698 21
4.7518263 3.858567 -0.96509057 23
4.6069965 2.5450888 -1.3999462 22
3.9565358 3.2209105 -1.1679775 24
12.604186 5.849956 2.9436893 27
12.488233 5.8067393 1.9306786 22
13.618378 6.3375769 1.0453011 27
22.052912 10.264587 0 1
12.990202 9.1170216 0.55298251 4
12.363058 5.7485619 -0.94858348 20
12.907863 9.0558548 -0.55215341 28
7.235558 3.3586235 -1.113397 29
6.3878522 4.4803028 -0.81365705 21
5.5969405 2.5907798 -1.3046775 23
5.0593038 3.5492711 -1.0835655 21
4.6214428 2.1303124 -1.448282 14
4.1604404 2.9203873 -1.2577182 23
13.072048 7.2418766 3.4365468 25
14.309248 7.9303536 2.5797722 27
16.021698 8.8791828 1.5995257 20
15.030121 8.3263407 0.29930875 8
14.056967 11.417946 0.94728082 4
12.435843 6.8866553 -0.74564749 37
13.986826 11.356892 -0.31388405 28
6.7001591 3.7081895 -0.93462718 23
7.5462966 6.1268506 -0.84568262 9
5.2230825 2.8899329 -1.1513698 21
4.7511525 3.8593965 -0.96509057 23
4.6065521 2.5458927 -1.3999462 22
3.9565358 3.2209105 -1.1679775 24
12.505754 5.7539878 2.9161637 25
12.437713 5.7331891 1.9198928 22
13.648378 6.2965584 1.0459969 1
12.452207 5.7477379 0 1
12.965023 9.0353174 0.55062675 3
12.443214 5.735703 -0.95328033 21
12.870176 8.9658632 -0.54925984 27
7.2983975 3.3583877 -1.1213795 28
6.4006348 4.457674 -0.81339657 23
5.692204 2.6119192 -1.3249656 23
5.0690265 3.5310662 -1.0831313 23
4.6350412 2.1179664 -1.450348 14
4.1601539 2.8996351 -1.2546964 20
13.104531 7.2031813 3.4387929 25
14.320321 7.8745322 2.5770407 21
16.153627 8.8823938 1.6097665 8
12.426688 6.8306661 0.2469079 2
14.001504 11.295999 0.94100046 4
12.434543 6.8321576 -0.74420345 36
13.944654 11.246092 -0.31209517 29
6.5927768 3.6202853 -0.91789395 23
5.7817106 4.6610756 -0.64540648 19
5.3402219 2.9316196 -1.1751781 18
4.813858 3.8839684 -0.97527003 25
4.6403837 2.544528 -1.4077058 23
3.9709806 3.2108395 -1.1691005 25
12.505754 5.7539878 2.9161637 25
12.437713 5.7331891 1.9198928 22
13.648378 6.2965584 1.0459969 1
15.900602 7.3382001 0 1
12.965023 9.0353174 0.55062675 3
12.443214 5.735703 -0.95328033 21
12.870176 8.9658632 -0.54925984 27
7.297811 3.3596616 -1.1213795 28
6.4006348 4.457674 -0.81339657 23
5.6917477 2.6129127 -1.3249656 23
5.0690265 3.5310662 -1.0831313 23
4.6346722 2.1187754 -1.450348 14
4.1601539 2.8996351 -1.2546964 20
13.103273 7.2054687 3.4387929 25
14.318947 7.8770313 2.5770407 21
16.152077 8.8852129 1.6097665 8
15.040871 8.2706509 0.29900333 7
14.001504 11.295999 0.94100046 4
12.43335 6.8343272 -0.74420345 36
13.944654 11.246092 -0.31209517 29
6.592145 3.6214359 -0.91789395 23
5.7808976 4.6620851 -0.64540648 19
5.3402219 2.9316196 -1.1751781 18
4.8131795 3.8848088 -0.97527003 25
4.6399393 2.5453382 -1.4077058 23
3.9704204 3.2115324 -1.1691005 25
12.593529 5.738513 2.9317441 26
12.478914 5.6968112 1.9230242 23
13.650947 6.2371697 1.0444312 1
12.450451 5.6916723 0 2
12.924078 8.936573 0.54748583 4
12.504994 5.7086878 -0.95641154 22
12.833078 8.8703203 -0.54627854 28
7.2492394 3.305192 -1.1120088 26
6.3903422 4.415802 -0.81001067 22
5.69238 2.587992 -1.3228848 25
5.0920591 3.5194664 -1.085302 25
4.6270757 2.0948486 -1.4455273 13
4.2046628 2.9078386 -1.2649709 25
13.157403 7.1725492 3.4460928 27
14.284848 7.7902169 2.5657241 18
16.403194 8.9451704 1.6315554 20
12.463622 6.7944241 0.24716969 2
13.923957 11.149384 0.93301922 7
12.436391 6.7767682 -0.74289072 36
13.909688 11.133968 -0.31039354 27
6.7949882 3.7004595 -0.94436288 25
7.4459577 5.9616442 -0.82980841 14
5.3681788 2.9214075 -1.1789874 19
4.8004227 3.8455088 -0.96978873 22
4.683187 2.5467634 -1.4180517 24
3.9479952 3.1694758 -1.158993 22
12.593529 5.738513 2.9317441 26
12.478914 5.6968112 1.9230242 23
13.650947 6.2371697 1.0444312 1
15.952407 7.2912984 0 2
12.924078 8.936573 0.54748583 4
12.50599 5.7065053 -0.95641154 22
12.833078 8.8703203 -0.54627854 28
7.2498164 3.3039267 -1.1120088 26
6.3903456 4.4157968 -0.81001067 22
5.6928315 2.5869982 -1.3228848 25
5.0926728 3.5185773 -1.085302 25
4.6274409 2.0940411 -1.4455273 13
4.2051702 2.9071047 -1.2649709 25
13.158655 7.1702528 3.4460928 27
14.286207 7.7877235 2.5657241 18
16.404755 8.9423075 1.6315554 20
15.219584 8.2929544 0.30192661 4
13.925903 11.146955 0.93301922 7
12.437574 6.7745972 -0.74289072 36
13.911631 11.13154 -0.31039354 27
6.7956338 3.6992733 -0.94436288 25
7.4480381 5.9590449 -0.82980841 14
5.3686891 2.9204705 -1.1789874 19
4.8017645 3.843833 -0.96978873 22
4.6840758 2.5451283 -1.4180517 24
3.9485483 3.1687865 -1.158993 22
12.566671 5.6734018 2.9208379 21
12.742369 5.7633295 1.9606009 23
13.715809 6.2090111 1.0477364 1
12.433801 5.6316853 0 3
12.88928 8.8461542 0.54469389 3
12.539472 5.6689763 -0.95745522 22
12.802164 8.7830601 -0.54364794 29
7.3245001 3.3070936 -1.1217268 27
6.5205259 4.4722486 -0.82459611 22
5.8378801 2.6282558 -1.3546172 25
5.1333442 3.5202823 -1.0913796 21
4.6369157 2.0788569 -1.446216 15
4.2092929 2.8882883 -1.2631577 22
13.100014 7.0791173 3.4241934 28
14.461025 7.817647 2.5922594 23
16.440252 8.8873587 1.6319914 29
12.464252 6.7356277 0.24668974 2
13.902198 11.048554 0.92883235 21
12.436982 6.7180915 -0.74144667 37
13.864305 11.014476 -0.30847377 20
6.8478141 3.6967394 -0.94983917 25
6.8605886 5.4493952 -0.76196241 13
5.4047737 2.9156883 -1.1847013 17
4.8228803 3.8331995 -0.97135484 22
4.7056894 2.5356319 -1.4219315 22
3.9595854 3.1549842 -1.158993 22
12.566671 5.6734018 2.9208379 21
12.742369 5.7633295 1.9606009 23
13.715809 6.2090111 1.0477364 1
16.260185 7.3633866 0 2
12.88928 8.8461542 0.54469389 3
12.538481 5.671165 -0.95745522 22
12.802164 8.7830601 -0.54364794 29
7.3245001 3.3070936 -1.1217268 27
6.5205231 4.4722538 -0.82459611 22
5.8378801 2.6282558 -1.3546172 25
5.1327295 3.5211785 -1.0913796 21
4.6369157 2.0788569 -1.446216 15
4.2087884 2.8890226 -1.2631577 22
13.100014 7.0791173 3.4241934 28
14.461025 7.817647 2.5922594 23
16.440252 8.8873587 1.6319914 29
15.147278 8.1851254 0.29991958 6
13.90027 11.050982 0.92883235 21
12.436982 6.7180915 -0.74144667 37
13.862382 11.016894 -0.30847377 20
6.8478141 3.6967394 -0.94983917 25
6.8596382 5.4505925 -0.76196241 13
5.4042649 2.9166315 -1.1847013 17
4.8222108 3.8340411 -0.97135484 22
4.7052464 2.5364532 -1.4219315 22
3.9595854 3.1549842 -1.158993 22
13.030272 5.8414793 2.0020049 22
13.640744 6.1206393 1.0404303 1
12.415912 5.5740504 0 3
12.852481 8.7583313 0.54190189 4
12.534458 5.619359 -0.95571572 24
12.777535 8.7039804 -0.54136813 30
7.3919353 3.3080406 -1.1304034 26
6.4798393 4.4128046 -0.81756383 19
5.9001727 2.6327615 -1.3671023 24
5.1545496 3.5110719 -1.0935502 22
4.2403898 2.8900876 -1.2698059 22
13.129858 7.0390902 3.4258778 29
15.00917 8.0497046 2.6859133 22
16.265509 8.7233419 1.6117276 28
12.46669 6.6836305 0.24629706 3
13.844766 10.932084 0.92268282 4
12.437185 6.6650224 -0.74013388 35
13.810566 10.901151 -0.30651036 20
6.7703395 3.6259971 -0.93736535 23
7.3408279 5.7937231 -0.81349927 13
5.4398742 2.9125886 -1.1904154 18
4.846519 3.827219 -0.97370392 20
4.7264109 2.5276649 -1.4258112 21
3.9394836 3.1176205 -1.1500086 18
13.030272 5.8414793 2.0020049 22
13.640744 6.1206393 1.0404303 1
15.91955 7.1457095 0 2
12.852481 8.7583313 0.54190189 4
12.535439 5.6171722 -0.95571572 24
12.777535 8.7039804 -0.54136813 30
7.3919353 3.3080406 -1.1304034 26
6.4798427 4.4127994 -0.81756383 19
5.9001727 2.6327615 -1.3671023 24
5.1551623 3.5101721 -1.0935502 22
4.2408943 2.8893473 -1.2698059 22
13.129858 7.0390902 3.4258778 29
15.00917 8.0497046 2.6859133 22
16.265509 8.7233419 1.6117276 28
15.20518 8.1513805 0.3005304 5
13.846674 10.929667 0.92268282 4
12.437185 6.6650224 -0.74013388 35
13.812469 10.89874 -0.30651036 20
6.7703395 3.6259971 -0.93736535 23
7.3418388 5.7924418 -0.81349927 13
5.4403825 2.911639 -1.1904154 18
4.847187 3.8263731 -0.97370392 20
4.7268524 2.5268402 -1.4258112 21
3.9394836 3.1176205 -1.1500086 18
11.872527 5.2608199 2.7504902 22
13.751982 6.1100698 1.0472145 1
12.422549 5.522418 0 3
12.828615 8.6733751 0.53954619 5
12.537704 5.5631032 -0.95432407 24
12.743115 8.6123114 -0.53856224 30
7.3768415 3.268903 -1.1262386 20
6.3765006 4.3082528 -0.80245751 22
5.9366307 2.6229601 -1.3733448 23
5.1863499 3.5036638 -1.0974573 24
4.2615013 2.8805807 -1.2728277 23
13.112542 6.9680605 3.4146471 21
15.101806 8.0282469 2.6972294 28
16.048868 8.5315886 1.587106 23
13.488868 7.1679673 0.26601827 14
13.804115 10.814158 0.91718757 5
9.0174189 4.7904387 -0.53508085 20
13.748039 10.766334 -0.30419791 19
6.9238696 3.6755927 -0.9568367 26
7.5002308 5.8730412 -0.82872111 14
5.4683647 2.900876 -1.1942247 19
4.8650637 3.8116302 -0.97448695 19
4.7638268 2.5241888 -1.4342175 20
3.994916 3.1378105 -1.1629237 20
11.872527 5.2608199 2.7504902 22
13.751982 6.1100698 1.0472145 1
16.066725 7.1411009 0 13
12.828615 8.6733751 0.53954619 5
12.537704 5.5631032 -0.95432407 24
12.743115 8.6123114 -0.53856224 30
7.3768415 3.268903 -1.1262386 20
6.3765006 4.3082528 -0.80245751 22
5.9366307 2.6229601 -1.3733448 23
5.1863499 3.5036638 -1.0974573 24
4.2615013 2.8805807 -1.2728277 23
13.112542 6.9680605 3.4146471 21
15.101806 8.0282469 2.6972294 28
16.048868 8.5315886 1.587106 23
13.488868 7.1679673 0.26601827 14
13.804115 10.814158 0.91718757 5
12.443892 6.6100264 -0.73908371 1
13.748039 10.766334 -0.30419791 19
6.9238696 3.6755927 -0.9568367 26
7.5002308 5.8730412 -0.82872111 14
5.4683647 2.900876 -1.1942247 19
4.8650637 3.8116302 -0.97448695 19
4.7638268 2.5241888 -1.4342175 20
3.994916 3.1378105 -1.1629237 20
11.812434 5.1849694 2.7323132 25
13.837151 6.0901427 1.0520854 1
12.647696 5.5696392 0 102
12.78828 8.5811996 0.53657973 4
12.554762 5.5183015 -0.95415008 25
12.715009 8.5288 -0.53610706 31
7.4290223 3.2610242 -1.1324859 24
6.5174484 4.3704739 -0.81834519 21
5.9816027 2.6178846 -1.3816681 24
5.1924152 3.4814236 -1.0961549 23
4.3917532 1.9142314 -1.3628864 12
4.2856283 2.8751538 -1.2770585 22
13.14325 6.925653 3.416332 18
15.188724 8.0065689 2.7077656 15
16.323109 8.6044035 1.6112918 30
13.516018 7.122004 0.26606193 13
13.747205 10.69231 0.91090721 4
12.435962 6.5502634 -0.73724586 38
13.686891 10.641538 -0.30201635 19
6.8949342 3.6294496 -0.95105618 25
7.6720285 5.9646001 -0.84546512 15
5.430665 2.8566468 -1.183749 18
4.8997655 3.8113167 -0.97879368 20
4.7854376 2.5142798 -1.4380971 20
3.8253937 2.9828627 -1.1101402 21
11.812434 5.1849694 2.7323132 25
13.837151 6.0901427 1.0520854 1
12.647696 5.5696392 0 102
12.78828 8.5811996 0.53657973 4
12.553799 5.5204921 -0.95415008 25
12.715009 8.5288 -0.53610706 31
7.4290223 3.2610242 -1.1324859 24
6.5174451 4.3704791 -0.81834519 21
5.9816027 2.6178846 -1.3816681 24
5.1918077 3.4823296 -1.0961549 23
4.3917532 1.9142314 -1.3628864 12
