# .PCD v0.7 - Point Cloud Data file format
VERSION 0.7
FIELDS x y z intensity
SIZE 4 4 4 4
TYPE F F F F
COUNT 1 1 1 1
WIDTH 1457
HEIGHT 1
VIEWPOINT 0 0 0 1 0 0 0
POINTS 1457
DATA ascii
13.330065 9.6797895 3.7891858 27
6.6484122 6.9528666 2.5647862 8
37.276115 27.074774 7.2749496 71
9.4206924 9.8206005 2.6360421 27
43.362068 31.494848 4.6857104 53
27.301702 28.403765 4.8261628 6
43.328259 31.458742 0.93400908 50
26.833515 27.867876 2.0256631 77
27.301086 28.343681 -0.68632144 30
9.96276 7.2271156 -1.5047741 6
6.423326 6.6659365 -0.80523592 14
6.4482245 4.6749125 -1.5384928 8
6.7911563 7.0553937 -1.5472771 10
4.8493457 3.5123837 -1.5939342 7
4.7687716 4.9661555 -1.5790157 10
28.430687 17.687731 7.1037021 35
7.0341091 6.3686357 2.3536241 26
35.802197 22.307163 5.9235549 44
12.288533 11.112464 2.9122334 41
35.662617 22.237478 2.9290695 13
31.967268 28.871765 4.5237308 48
8.4148073 5.2528257 0 40
40.860058 36.878315 1.9208682 88
8.3654604 5.2159805 -0.68521374 34
11.301781 10.194877 -0.53295034 48
9.1734381 5.7082071 -1.5097498 4
6.9553657 6.2730889 -0.97748232 25
6.2141714 3.8578954 -1.5486542 8
6.6323271 5.9836941 -1.5689125 8
4.7588139 2.9441075 -1.5935923 8
4.7996383 4.3324904 -1.6022159 12
13.330065 9.6797895 3.7891858 27
9.3325157 9.7660151 3.6051755 7
37.276115 27.074774 7.2749496 71
9.4189787 9.8222446 2.6360421 27
43.362068 31.494848 4.6857104 53
36.409477 37.894615 6.438941 1
43.328259 31.458742 0.93400908 50
26.828651 27.872559 2.0256631 77
27.296137 28.348444 -0.68632144 30
9.96276 7.2271156 -1.5047741 6
6.422163 6.667058 -0.80523592 14
6.4474087 4.6760378 -1.5384928 8
6.7899246 7.0565791 -1.5472771 10
4.8487329 3.5132301 -1.5939342 7
4.7687716 4.9661555 -1.5790157 10
28.389305 17.531691 7.0787735 37
7.0966687 6.3825955 2.3675153 23
35.772793 22.124516 5.9065056 55
12.387585 11.127603 2.9269786 34
35.642857 22.061352 2.9214156 18
32.001766 28.710804 4.5151072 49
8.4385567 5.2288399 0 34
40.978405 36.739285 1.9206938 88
8.3445282 5.1646023 -0.68208253 39
11.300177 10.12566 -0.53128439 63
9.1733541 5.6660538 -1.5066261 5
6.9483576 6.2250977 -0.97357559 36
6.2331781 3.8411119 -1.5502149 9
6.6484675 5.9583812 -1.5680442 8
4.7726488 2.9308228 -1.5949696 8
4.8085623 4.3116903 -1.6004026 10
13.334425 9.6155872 3.7813244 28
6.6903062 6.9528379 2.5725405 24
37.215488 26.84268 7.2456827 63
9.4412746 9.7803583 2.6331828 25
43.47031 31.353794 4.6861463 55
27.38563 28.312502 4.8252501 75
43.426262 31.310507 0.93387818 53
27.033844 27.899996 2.0341678 59
27.426525 28.295465 -0.68723768 32
9.9866705 7.1940384 -1.5047741 6
11.935719 12.314476 -1.494351 1
6.4608884 4.6531982 -1.5380167 8
6.8253074 7.0464439 -1.5500177 13
4.8564348 3.4943116 -1.5926409 7
4.7869062 4.9520669 -1.5795772 10
28.389305 17.531691 7.0787735 37
7.0966687 6.3825955 2.3675153 23
35.772793 22.124516 5.9065056 55
12.387585 11.127603 2.9269786 34
35.642857 22.061352 2.9214156 18
31.996756 28.716391 4.5151072 49
8.4385567 5.2288399 0 34
40.978405 36.739285 1.9206938 88
8.3445282 5.1646023 -0.68208253 39
11.300177 10.12566 -0.53128439 63
9.1723652 5.667655 -1.5066261 5
6.9483576 6.2250977 -0.97357559 36
6.2325077 3.8422 -1.5502149 9
6.6484675 5.9583812 -1.5680442 8
4.7721367 2.9316556 -1.5949696 8
4.8085623 4.3116903 -1.6004026 10
13.332747 9.6179142 3.7813244 28
6.6903062 6.9528379 2.5725405 24
37.2108 26.849174 7.2456827 63
9.4412746 9.7803583 2.6331828 25
43.464836 31.361382 4.6861463 55
27.38563 28.312502 4.8252501 75
43.420799 31.318085 0.93387818 53
27.033844 27.899996 2.0341678 59
27.421589 28.300247 -0.68723768 32
9.9854145 7.1957812 -1.5047741 6
11.93357 12.316559 -1.494351 1
6.4608884 4.6531982 -1.5380167 8
6.8240771 7.0476356 -1.5500177 13
4.8558249 3.4951591 -1.5926409 7
4.7860422 4.9529018 -1.5795772 10
28.350231 17.37117 7.053844 38
7.1388035 6.3755641 2.3741586 22
35.794941 21.965851 5.8974595 55
12.553116 11.197395 2.9569035 35
35.670761 21.906786 2.9174144 29
29.940037 26.682241 4.211452 3
8.4695377 5.207202 0 19
41.108265 36.597679 1.9207809 88
8.3816376 5.1471806 -0.68364811 42
11.329854 10.08117 -0.5310213 82
9.2237606 5.6550002 -1.5118321 5
7.0109057 6.2371726 -0.97930551 9
6.2542286 3.82552 -1.5522958 9
6.6600318 5.9269514 -1.5658736 8
4.7741289 2.9099827 -1.5922149 8
4.8272061 4.2981062 -1.6016114 12
13.376143 9.5784073 3.7841322 18
6.7145357 6.9294419 2.5725405 27
37.127628 26.592594 7.2113433 58
9.4719381 9.7438231 2.6322296 36
43.588219 31.21962 4.6876717 58
27.390804 28.120741 4.8088217 6
43.529854 31.166328 0.93387818 55
27.630173 28.317081 -0.68998647 26
10.006435 7.1579943 -1.5041656 5
6.4697175 6.6278849 -0.80567086 14
6.3832421 4.5635514 -1.5156369 8
6.8538051 7.0290775 -1.5511922 13
4.8758574 3.4838016 -1.5952274 7
4.7999058 4.932672 -1.5784541 10
28.350231 17.37117 7.053844 38
7.1388035 6.3755641 2.3741586 22
35.794941 21.965851 5.8974595 55
12.553116 11.197395 2.9569035 35
35.670761 21.906786 2.9174144 29
32.062805 28.564186 4.5096192 16
8.4695377 5.207202 0 19
41.108265 36.597679 1.9207809 88
8.3816376 5.1471806 -0.68364811 42
11.329854 10.08117 -0.5310213 82
9.2247477 5.6533904 -1.5118321 5
7.0109057 6.2371726 -0.97930551 9
6.2548962 3.8244286 -1.5522958 9
6.6600318 5.9269514 -1.5658736 8
4.7746367 2.9091494 -1.5922149 8
4.8272061 4.2981062 -1.6016114 12
13.377813 9.5760717 3.7841322 18
6.7145357 6.9294419 2.5725405 27
37.132271 26.586115 7.2113433 58
9.4719381 9.7438231 2.6322296 36
43.59367 31.212015 4.6876717 58
32.921986 33.80064 5.780869 1
43.53529 31.158726 0.93387818 55
27.635111 28.312263 -0.68998647 26
10.007685 7.1562486 -1.5041656 5
6.4708738 6.6267557 -0.80567086 14
6.3832421 4.5635514 -1.5156369 8
6.8550315 7.0278811 -1.5511922 13
4.8764648 3.4829507 -1.5952274 7
4.8007665 4.9318342 -1.5784541 10
28.317572 17.20874 7.0299544 39
7.1748276 6.3606234 2.3783863 25
35.792728 21.784321 5.8838902 3
13.16176 11.65409 3.0904803 9
31.920959 19.443645 2.6046419 3
30.044127 26.568727 4.2117133 16
8.4971066 5.1813278 0 13
41.249622 36.453384 1.9211301 85
8.3983173 5.1151299 -0.68347418 40
11.349875 10.024687 -0.53023213 63
9.2263603 5.6079764 -1.5087085 6
11.125635 9.8265667 -1.5512615 1
6.2563219 3.7938774 -1.5491744 9
6.6817107 5.9025011 -1.5658736 8
4.7873254 2.8928714 -1.5929036 7
4.8447442 4.2819924 -1.6022159 12
13.321456 9.4620924 3.758302 1
6.7618079 6.9272628 2.5809412 32
36.971786 26.266785 7.1613941 37
9.5539322 9.7564001 2.6450975 25
43.693558 31.041927 4.6861463 52
27.445034 27.97056 4.800303 79
43.692005 31.02935 0.93479449 45
31.098263 31.639359 2.3231931 69
8.2479677 5.8570275 -0.53009236 1
31.521946 32.059311 -0.78418654 28
6.1802902 4.3859978 -0.92489147 31
6.4671884 6.5745711 -0.80219162 36
6.3258519 4.4875998 -1.4980187 27
6.8772845 6.9991851 -1.5504091 12
4.8813148 3.4594707 -1.5926409 8
4.8256283 4.9211674 -1.5807003 10
28.317572 17.20874 7.0299544 39
7.1748276 6.3606234 2.3783863 25
35.792728 21.784321 5.8838902 3
35.797676 21.804436 2.9212415 1
32.482037 28.72485 4.5537825 4
8.4971066 5.1813278 0 13
41.249622 36.453384 1.9211301 85
8.3983173 5.1151299 -0.68347418 40
11.349875 10.024687 -0.53023213 63
9.2263603 5.6079764 -1.5087085 6
11.125635 9.8265667 -1.5512615 1
6.2563219 3.7938774 -1.5491744 9
6.6817107 5.9025011 -1.5658736 8
4.7873254 2.8928714 -1.5929036 7
4.8447442 4.2819924 -1.6022159 12
13.321456 9.4620924 3.758302 1
6.7618079 6.9272628 2.5809412 32
36.971786 26.266785 7.1613941 37
9.5539322 9.7564001 2.6450975 25
43.693558 31.041927 4.6861463 52
27.445034 27.97056 4.800303 79
43.692005 31.02935 0.93479449 45
31.098263 31.639359 2.3231931 69
8.2479677 5.8570275 -0.53009236 1
31.521946 32.059311 -0.78418654 28
6.1802902 4.3859978 -0.92489147 31
6.4671884 6.5745711 -0.80219162 36
6.3258519 4.4875998 -1.4980187 27
6.8772845 6.9991851 -1.5504091 12
4.8813148 3.4594707 -1.5926409 8
4.8256283 4.9211674 -1.5807003 10
28.285315 17.054241 7.0071025 38
7.0950356 6.2457528 2.3445647 24
32.032459 19.34334 5.2541318 2
13.222696 11.625959 3.0952506 34
31.36961 18.958092 2.5541947 2
30.228228 26.544086 4.2245178 36
8.5151415 5.1516356 0 37
41.386002 36.317413 1.9215661 83
8.4310656 5.0948052 -0.68469191 40
11.390434 9.9899521 -0.53049523 68
9.269207 5.5897908 -1.5125263 5
11.182298 9.8073483 -1.5543871 4
6.2758145 3.7757936 -1.5507351 8
6.6985722 5.8758941 -1.5650054 8
4.7932692 2.8736744 -1.5915263 8
4.8596621 4.2650547 -1.6022159 10
6.8164053 6.9346333 2.5925729 19
36.873554 26.003799 7.1247134 28
9.7016201 9.8383608 2.6765528 24
43.836254 30.913618 4.6898503 50
30.937828 31.311655 5.3926587 36
43.791874 30.870882 0.9346199 1
31.183929 31.505772 2.3213613 70
6.1949124 4.3671689 -0.39671597 7
31.6618 31.977505 -0.78488469 25
6.1245499 4.3143969 -0.91424304 24
6.4760833 6.5377946 -0.80045193 58
6.2993317 4.4358263 -1.4880192 27
6.9207692 6.994452 -1.5547159 12
4.8953366 3.4437997 -1.5932875 6
4.8444877 4.9060273 -1.5812619 10
28.285315 17.054241 7.0071025 38
7.0950356 6.2457528 2.3445647 24
32.032459 19.34334 5.2541318 2
13.222696 11.625959 3.0952506 34
31.36961 18.958092 2.5541947 2
30.228228 26.544086 4.2245178 36
8.5151415 5.1516356 0 37
41.386002 36.317413 1.9215661 83
8.4310656 5.0948052 -0.68469191 40
11.390434 9.9899521 -0.53049523 68
9.269207 5.5897908 -1.5125263 5
11.182298 9.8073483 -1.5543871 4
6.2758145 3.7757936 -1.5507351 8
6.6985722 5.8758941 -1.5650054 8
4.7932692 2.8736744 -1.5915263 8
4.8596621 4.2650547 -1.6022159 10
6.8164053 6.9346333 2.5925729 19
36.873554 26.003799 7.1247134 28
9.7016201 9.8383608 2.6765528 24
43.836254 30.913618 4.6898503 50
30.937828 31.311655 5.3926587 36
43.791874 30.870882 0.9346199 1
31.183929 31.505772 2.3213613 70
8.5704012 6.0410299 -0.54952121 1
31.6618 31.977505 -0.78488469 25
6.1245499 4.3143969 -0.91424304 24
6.4760833 6.5377946 -0.80045193 58
6.2993317 4.4358263 -1.4880192 27
6.9207692 6.994452 -1.5547159 12
4.8953366 3.4437997 -1.5932875 6
4.8444877 4.9060273 -1.5812619 10
28.245178 16.902597 6.983212 39
7.1449218 6.2477479 2.354228 25
31.461468 18.856544 5.1501002 9
13.238928 11.562612 3.0900464 34
31.006674 18.598722 2.5195775 20
30.342314 26.466581 4.2281766 38
8.5386105 5.1272287 0 39
41.506203 36.17997 1.9215661 81
8.4521923 5.0693822 -0.68503976 40
11.451753 9.9767456 -0.53181046 55
9.2643194 5.5450449 -1.5087085 5
11.181017 9.7408085 -1.5496989 6
6.2778006 3.7486997 -1.5481341 8
6.7105966 5.8471766 -1.5632689 9
4.8007069 2.8565364 -1.5908377 8
4.8737783 4.2489161 -1.6022159 9
6.771451 6.8432918 2.5667248 22
36.76944 25.748243 7.0880322 30
9.7566595 9.828784 2.6827483 26
43.958923 30.78237 4.6920295 53
31.748379 31.919733 5.5155716 1
8.0899515 5.6645322 0.1717753 7
31.319952 31.434025 2.3237164 39
6.117311 4.2821956 -0.39080855 29
31.873529 31.978567 -0.78750253 3
6.1225543 4.2826886 -0.91180915 35
6.4906979 6.5092263 -0.79958212 44
6.2838326 4.3938241 -1.4808767 28
6.9508929 6.9784651 -1.5562819 14
4.8988099 3.4220178 -1.590701 6
4.8590136 4.8882065 -1.5807003 10
28.245178 16.902597 6.983212 39
7.1449218 6.2477479 2.354228 25
31.461468 18.856544 5.1501002 9
13.238928 11.562612 3.0900464 34
31.006674 18.598722 2.5195775 20
30.337694 26.471876 4.2281766 38
8.5386105 5.1272287 0 39
41.506203 36.17997 1.9215661 81
8.4521923 5.0693822 -0.68503976 40
11.451753 9.9767456 -0.53181046 55
9.2633514 5.5466619 -1.5087085 5
11.181017 9.7408085 -1.5496989 6
6.2771459 3.7497947 -1.5481341 8
6.7105966 5.8471766 -1.5632689 9
4.8002076 2.8573744 -1.5908377 8
4.8737783 4.2489161 -1.6022159 9
6.771451 6.8432918 2.5667248 22
36.764946 25.75466 7.0880322 30
9.7566595 9.828784 2.6827483 26
43.953552 30.790039 4.6920295 53
36.575855 36.774254 6.3549705 1
8.0889635 5.6659441 0.1717753 7
6.1165633 4.2832632 -0.39080855 29
35.985363 36.117378 -0.8893382 1
6.1218066 4.2837567 -0.91180915 35
6.4895616 6.5103588 -0.79958212 44
6.2838326 4.3938241 -1.4808767 28
6.9496746 6.9796777 -1.5562819 14
4.8982124 3.4228728 -1.590701 6
4.858161 4.8890548 -1.5807003 10
28.196756 16.740244 6.9567251 38
7.2088103 6.2593603 2.368119 25
31.116383 18.502451 5.0829492 16
13.242009 11.48406 3.0813725 34
30.737051 18.291456 2.4924402 20
30.520105 26.443974 4.2407198 26
8.5693445 5.1050639 0 39
41.634132 36.036499 1.9216535 71
8.4762678 5.0436711 -0.68556166 40
11.531853 9.9759474 -0.53391492 34
9.2720108 5.5079746 -1.5069731 5
11.156664 9.6512842 -1.5416248 6
6.2944059 3.7303517 -1.5491744 7
6.7253819 5.8188825 -1.5619665 9
4.8018713 2.8357191 -1.5880829 8
4.8867464 4.2302895 -1.6016114 8
6.7646284 6.7888055 2.5550933 27
36.722836 25.53454 7.0626674 31
9.7388763 9.7425804 2.6684506 27
44.091434 30.657751 4.6952977 39
31.777081 31.726307 5.5012722 4
8.1784792 5.6861773 0.17325875 25
6.0576668 4.2106056 -0.38608262 35
6.1244922 4.253871 -0.90998369 39
6.5016656 6.4771142 -0.79827738 47
6.2829995 4.3606715 -1.4770674 36
6.9879751 6.9693313 -1.559414 10
4.9101305 3.4057541 -1.590701 6
4.885529 4.8824058 -1.5840695 10
28.196756 16.740244 6.9567251 38
7.2088103 6.2593603 2.368119 25
31.116383 18.502451 5.0829492 16
13.242009 11.48406 3.0813725 34
30.737051 18.291456 2.4924402 20
30.524721 26.438644 4.2407198 26
8.5693445 5.1050639 0 39
41.634132 36.036499 1.9216535 71
8.4762678 5.0436711 -0.68556166 40
11.531853 9.9759474 -0.53391492 34
9.2729721 5.5063567 -1.5069731 5
11.156664 9.6512842 -1.5416248 6
6.2950563 3.7292531 -1.5491744 7
6.7253819 5.8188825 -1.5619665 9
4.8023663 2.8348811 -1.5880829 8
4.8867464 4.2302895 -1.6016114 8
6.7646284 6.7888055 2.5550933 27
36.727291 25.528131 7.0626674 31
9.7388763 9.7425804 2.6684506 27
44.096783 30.650057 4.6952977 39
38.268467 38.208637 6.6260486 1
8.179471 5.6847496 0.17325875 25
47.632492 47.476688 3.522733 9
6.0584021 4.2095485 -0.38608262 35
36.117496 35.985249 -0.8893382 4
6.1252346 4.2528019 -0.90998369 39
6.5027962 6.4759793 -0.79827738 47
6.2829995 4.3606715 -1.4770674 36
6.9891915 6.9681115 -1.559414 10
4.9107251 3.4048967 -1.590701 6
4.8863807 4.8815527 -1.5840695 10
28.163084 16.580967 6.9333549 36
7.193121 6.1996288 2.3554361 22
30.757452 18.136831 5.0133624 13
13.310132 11.457941 3.0874441 32
30.3657 17.920153 2.456953 18
30.702478 26.396288 4.2519565 20
8.5987625 5.0799747 0 39
41.775406 35.891804 1.9220896 71
8.5032911 5.0176368 -0.68625748 40
11.750289 10.089894 -0.54233271 10
9.3016272 5.4773545 -1.5083615 5
11.235344 9.6475897 -1.5476152 4
6.3002467 3.7012062 -1.5470936 7
6.7466645 5.7941937 -1.5619665 8
4.8147993 2.8184729 -1.5887716 8
4.9040575 4.2139316 -1.6022159 8
6.7210622 6.6957541 2.5292449 31
36.625454 25.258768 7.0252061 26
9.8110762 9.7431469 2.6784589 30
40.052952 27.622351 4.2536364 1
31.806801 31.524025 5.4863648 35
8.1138153 5.5951476 0.17142627 38
44.251732 43.784363 3.2606606 34
6.079957 4.191565 -0.38647643 28
6.1428246 4.2317309 -0.91028792 39
6.5176373 6.4433432 -0.79719013 44
6.2969184 4.3362222 -1.4765912 41
7.0234547 6.9511366 -1.5613716 10
4.9271512 3.3896117 -1.5919942 6
4.9007821 4.8601775 -1.5829463 10
28.163084 16.580967 6.9333549 36
7.193121 6.1996288 2.3554361 22
30.757452 18.136831 5.0133624 13
13.310132 11.457941 3.0874441 32
30.3657 17.920153 2.456953 18
32.940254 28.320402 4.5621448 1
8.5987625 5.0799747 0 39
41.775406 35.891804 1.9220896 71
8.5041666 5.0161524 -0.68625748 40
11.750289 10.089894 -0.54233271 10
9.3016272 5.4773545 -1.5083615 5
11.235348 9.6475849 -1.5476152 4
6.3002467 3.7012062 -1.5470936 7
6.7476749 5.793016 -1.5619665 8
4.8147993 2.8184729 -1.5887716 8
4.9047933 4.2130756 -1.6022159 8
6.7222309 6.6945806 2.5292449 31
36.625454 25.258768 7.0252061 26
9.8127766 9.7414341 2.6784589 30
40.052952 27.622351 4.2536364 1
31.812302 31.518475 5.4863648 35
8.1138153 5.5951476 0.17142627 38
44.259369 43.776642 3.2606606 34
6.079957 4.191565 -0.38647643 28
6.1428246 4.2317309 -0.91028792 39
6.5187616 6.4422059 -0.79719013 44
6.2976756 4.3351231 -1.4765912 41
7.0246673 6.9499102 -1.5613716 10
4.9277425 3.3887515 -1.5919942 6
4.9007821 4.8601775 -1.5829463 10
28.117311 16.422138 6.9079061 30
7.2128744 6.172904 2.3548319 20
30.386757 17.77565 4.9427323 13
13.387475 11.443409 3.0961182 24
30.025576 17.57847 2.4244235 18
33.475704 28.578171 4.62251 22
8.6250715 5.0549812 0 39
41.89854 35.744141 1.9220024 52
8.5280838 4.9902129 -0.68677932 40
9.0170603 5.2676382 -1.4590777 5
11.270848 9.6099215 -1.5478758 5
6.3152409 3.6804216 -1.5476139 6
6.7547426 5.758244 -1.5589278 8
4.8204498 2.7992382 -1.5873942 8
4.9194698 4.1959291 -1.6022159 9
36.562611 25.027557 6.9963293 30
9.9620304 9.8208733 2.7099144 20
40.013489 27.389532 4.2392554 9
31.382689 30.876389 5.3935714 59
8.133296 5.5667906 0.17142627 40
44.716461 43.921059 3.2830346 18
6.0924907 4.1689067 -0.38634515 39
6.1514125 4.2060618 -0.90937519 39
6.5287733 6.4071946 -0.79566795 50
6.3147955 4.3144979 -1.4770674 24
7.0594478 6.9357352 -1.5637207 10
4.9355521 3.3688083 -1.590701 6
4.9246559 4.8498826 -1.5851926 9
28.117311 16.422138 6.9079061 30
7.2128744 6.172904 2.3548319 20
30.386757 17.77565 4.9427323 13
13.387475 11.443409 3.0961182 24
30.025576 17.57847 2.4244235 18
33.475704 28.578171 4.62251 22
8.6250715 5.0549812 0 39
41.89854 35.744141 1.9220024 52
8.5272121 4.9917011 -0.68677932 40
9.0170603 5.2676382 -1.4590777 5
11.270844 9.6099262 -1.5478758 5
6.3152409 3.6804216 -1.5476139 6
6.7537374 5.7594223 -1.5589278 8
4.8204498 2.7992382 -1.5873942 8
4.9187374 4.1967874 -1.6022159 9
36.562611 25.027557 6.9963293 30
9.9603167 9.8226118 2.7099144 20
40.013489 27.389532 4.2392554 9
31.377298 30.881865 5.3935714 59
8.133296 5.5667906 0.17142627 40
48.417953 47.573845 3.5555739 1
6.0924907 4.1689067 -0.38634515 39
6.1514125 4.2060618 -0.90937519 39
6.5276542 6.4083343 -0.79566795 50
6.3140426 4.3155999 -1.4770674 24
7.0582376 6.9369678 -1.5637207 10
4.9349642 3.3696697 -1.590701 6
4.9246559 4.8498826 -1.5851926 9
28.12295 16.300608 6.8959613 30
7.2129774 6.1316633 2.3481884 27
30.023724 17.429976 4.8741894 13
13.248942 11.249137 3.055351 17
29.710619 17.262104 2.3943291 16
34.827488 29.533182 4.7957659 20
8.6439505 5.0276079 0 40
42.020657 35.608234 1.922177 60
8.550189 4.9671521 -0.68730116 40
11.637592 9.8562555 -0.5340026 10
9.2915621 5.3866138 -1.5007259 5
11.293164 9.5644617 -1.5465734 5
6.3274112 3.6594594 -1.5476139 6
6.7671657 5.7322197 -1.5576254 8
4.8297062 2.7832377 -1.5873942 7
4.9326277 4.1804533 -1.6022159 7
36.469761 24.786808 6.96277 28
10.057677 9.8530931 2.7275484 22
39.931072 27.139107 4.2209525 13
31.520338 30.817547 5.400569 30
8.1434412 5.5341711 0.17125173 39
36.716827 35.836636 2.6870587 6
6.1042166 4.1472783 -0.3862139 42
6.1612196 4.1828532 -0.90876669 39
6.5470867 6.3849115 -0.79545045 41
6.5598588 4.4516969 -1.5313504 6
7.0776706 6.9100714 -1.5629376 10
4.9481096 3.3546402 -1.5913476 7
4.9441924 4.836935 -1.5863156 10
28.12295 16.300608 6.8959613 30
7.2129774 6.1316633 2.3481884 27
30.023724 17.429976 4.8741894 13
13.248942 11.249137 3.055351 17
29.710619 17.262104 2.3943291 16
34.827488 29.533182 4.7957659 20
8.6439505 5.0276079 0 40
42.020657 35.608234 1.922177 60
8.5510559 4.9656596 -0.68730116 40
11.637592 9.8562555 -0.5340026 10
9.2915621 5.3866138 -1.5007259 5
11.293168 9.5644569 -1.5465734 5
6.3274112 3.6594594 -1.5476139 6
6.7681661 5.7310386 -1.5576254 8
4.8297062 2.7832377 -1.5873942 7
4.9333572 4.1795926 -1.6022159 7
36.469761 24.786808 6.96277 28
10.059397 9.8513384 2.7275484 22
39.931072 27.139107 4.2209525 13
31.525717 30.812044 5.400569 30
8.1434412 5.5341711 0.17125173 39
44.877941 43.788223 3.2842119 6
6.1042166 4.1472783 -0.3862139 42
6.1612196 4.1828532 -0.90876669 39
6.5482006 6.383769 -0.79545045 41
6.5606356 4.450552 -1.5313504 6
7.078876 6.9088364 -1.5629376 10
4.9486952 3.3537769 -1.5913476 7
4.9441924 4.836935 -1.5863156 10
28.161301 16.18524 6.8907676 30
29.671137 17.080256 4.8066902 16
13.148899 11.081486 3.0228243 26
29.354433 16.911619 2.3605816 18
35.152336 29.587868 4.8255563 13
8.6731491 5.0021334 0 40
42.158527 35.460415 1.9225259 55
8.5843306 4.9429893 -0.68851888 40
11.639219 9.7845926 -0.53242427 57
9.3520355 5.3759503 -1.5073203 6
11.326245 9.5214014 -1.5463129 6
6.3535123 3.6435349 -1.5507351 5
6.7928939 5.7093625 -1.5584935 7
4.833612 2.761945 -1.5853281 7
4.9467864 4.1599207 -1.6016114 8
6.5292902 6.3673949 2.4310219 30
36.39452 24.541153 6.9311619 34
10.090159 9.809269 2.7261183 17
39.869205 26.883968 4.2039576 9
8.1843977 5.5182567 0.17168804 40
36.536766 35.38792 2.6638999 67
6.1214466 4.1262717 -0.38634515 40
6.1785674 4.1616287 -0.90907097 40
6.5626106 6.3510618 -0.7943632 39
6.5891218 4.4346957 -1.5342072 7
7.1112413 6.8897209 -1.5645038 9
4.9609542 3.3356164 -1.5913476 7
4.9671268 4.8238759 -1.5880001 14
28.161301 16.18524 6.8907676 30
29.671137 17.080256 4.8066902 16
13.148899 11.081486 3.0228243 26
29.354433 16.911619 2.3605816 18
35.152336 29.587868 4.8255563 13
8.6731491 5.0021334 0 40
42.158527 35.460415 1.9225259 55
8.5843306 4.9429893 -0.68851888 40
11.639219 9.7845926 -0.53242427 57
9.3520355 5.3759503 -1.5073203 6
11.326245 9.5214014 -1.5463129 6
6.3535123 3.6435349 -1.5507351 5
6.7928939 5.7093625 -1.5584935 7
4.833612 2.761945 -1.5853281 7
4.9467864 4.1599207 -1.6016114 8
6.5292902 6.3673949 2.4310219 30
36.39452 24.541153 6.9311619 34
10.090159 9.809269 2.7261183 17
39.869205 26.883968 4.2039576 9
32.008835 31.055731 5.463851 30
8.1843977 5.5182567 0.17168804 40
36.536766 35.38792 2.6638999 67
6.1214466 4.1262717 -0.38634515 40
6.1785674 4.1616287 -0.90907097 40
6.5626106 6.3510618 -0.7943632 39
6.5891218 4.4346957 -1.5342072 7
7.1112413 6.8897209 -1.5645038 9
4.9609542 3.3356164 -1.5913476 7
4.9671268 4.8238759 -1.5880001 14
28.217627 16.08684 6.8907676 31
7.5225353 6.302742 2.4345543 18
29.360773 16.765476 4.7468457 16
13.193164 11.040259 3.0241253 28
29.064648 16.609869 2.3325748 18
8.7166033 4.9867139 0 7
42.285885 35.316238 1.9227004 51
8.6080313 4.9167032 -0.68904078 38
11.703987 9.7695246 -0.53382719 41
9.3858013 5.3518519 -1.5097498 5
11.372772 9.4929619 -1.5481361 7
6.3683186 3.6225426 -1.5512553 7
6.8090024 5.6824603 -1.5576254 8
4.8432231 2.7450559 -1.5853281 7
4.9705853 4.1504049 -1.6046333 8
6.5341372 6.3277555 2.4245598 26
36.354774 24.330189 6.9073582 36
25.535173 24.661261 6.8872619 20
39.770313 26.615822 4.1836934 4
32.386848 31.203815 5.5097909 20
8.2077656 5.492434 0.1717753 40
35.990765 34.616306 2.6152275 53
6.1524153 4.1159806 -0.38739538 10
6.1951199 4.1414151 -0.90937519 39
6.5811501 6.3246622 -0.79392827 38
6.6025205 4.4103055 -1.5337311 8
7.1548123 6.8836961 -1.5688105 9
4.9705591 3.3169396 -1.590701 7
4.9839349 4.8065085 -1.5880001 15
28.217627 16.08684 6.8907676 31
7.5225353 6.302742 2.4345543 18
29.360773 16.765476 4.7468457 16
13.193164 11.040259 3.0241253 28
29.064648 16.609869 2.3325748 18
8.7166033 4.9867139 0 7
42.285885 35.316238 1.9227004 51
8.607173 4.9182053 -0.68904078 38
11.703987 9.7695246 -0.53382719 41
9.3858013 5.3518519 -1.5097498 5
11.372768 9.4929667 -1.5481361 7
6.3683186 3.6225426 -1.5512553 7
6.8080111 5.6836486 -1.5576254 8
4.8432231 2.7450559 -1.5853281 7
4.9698606 4.1512723 -1.6046333 8
6.5330324 6.3288965 2.4245598 26
36.354774 24.330189 6.9073582 36
25.530869 24.665716 6.8872619 20
39.770313 26.615822 4.1836934 4
32.381405 31.209467 5.5097909 20
8.2077656 5.492434 0.1717753 40
35.984722 34.622589 2.6152275 53
6.1524153 4.1159806 -0.38739538 10
6.1951199 4.1414151 -0.90937519 39
6.5800462 6.3258104 -0.79392827 38
6.6017509 4.4114575 -1.5337311 8
7.1536102 6.8849449 -1.5688105 9
4.9699798 3.3178072 -1.590701 7
4.9839349 4.8065085 -1.5880001 15
28.241014 15.976324 6.8834963 31
7.6664419 6.3802085 2.4744155 16
29.024168 16.445944 4.6835222 18
13.24674 11.010616 3.0280287 27
28.761595 16.310452 2.3038721 16
69.162605 57.417259 9.4441462 1
8.7396154 4.9614816 0 6
42.41238 35.1838 1.9231367 46
8.6321154 4.8945522 -0.68973655 4
11.594007 9.6126356 -0.5273385 37
9.3991861 5.3182611 -1.5090556 4
11.446291 9.4901209 -1.5538661 7
6.3739057 3.5978022 -1.5496947 6
6.8268209 5.6610413 -1.5576254 7
4.8460131 2.7254505 -1.5832622 7
4.9798665 4.1316695 -1.6034245 8
27.409973 18.206232 7.5766873 2
6.5383296 6.2921171 2.4187441 27
36.27483 24.102909 6.8769207 28
25.65501 24.621706 6.8987002 1
38.870953 25.827763 4.0799785 1
31.355644 30.020681 5.31812 2
8.2384281 5.4734836 0.17203709 40
6.1701899 4.0983181 -0.38765791 10
6.2088194 4.1208482 -0.90937519 40
6.5901861 6.2936301 -0.79262358 39
6.616343 4.3895411 -1.5337311 7
7.1335878 6.8202128 -1.559414 9
4.9749146 3.297307 -1.5887611 8
5.0051208 4.7950144 -1.5896847 14
28.241014 15.976324 6.8834963 31
7.6664419 6.3802085 2.4744155 16
29.024168 16.445944 4.6835222 18
13.24674 11.010616 3.0280287 27
28.761595 16.310452 2.3038721 16
69.152588 57.429329 9.4441462 1
8.7396154 4.9614816 0 6
42.41238 35.1838 1.9231367 46
8.6321154 4.8945522 -0.68973655 4
11.594007 9.6126356 -0.5273385 37
9.3982582 5.319901 -1.5090556 4
11.446291 9.4901209 -1.5538661 7
6.3732772 3.5989149 -1.5496947 6
6.8268209 5.6610413 -1.5576254 7
4.8455372 2.7262962 -1.5832622 7
4.9798665 4.1316695 -1.6034245 8
27.406794 18.211014 7.5766873 2
6.5383296 6.2921171 2.4187441 27
36.270622 24.109241 6.8769207 28
25.65501 24.621706 6.8987002 1
46.49305 30.90357 4.8811574 1
32.726665 31.333607 5.5508637 18
8.2374716 5.4749212 0.17203709 40
58.348736 55.772491 4.2283525 1
6.1694751 4.0993948 -0.38765791 10
6.2080998 4.1219325 -0.90937519 40
6.589088 6.2947803 -0.79262358 39
6.616343 4.3895411 -1.5337311 7
7.1323972 6.8214574 -1.559414 9
4.974339 3.2981751 -1.5887611 8
5.0042844 4.7958879 -1.5896847 14
28.271019 15.863293 6.8772645 32
8.1280622 6.7166505 2.6163459 15
28.740381 16.152927 4.6285491 16
13.222438 10.912585 3.0137169 26
28.433586 15.993589 2.2730818 18
69.30851 57.151211 9.4381361 1
42.523369 35.026009 1.9226133 46
8.6578436 4.8692775 -0.69043243 2
11.588918 9.5403414 -0.52558482 46
8.5832911 4.8195271 -1.375087 7
11.485106 9.4548492 -1.5546474 9
6.3900695 3.5790331 -1.5507351 6
6.8446388 5.6356111 -1.5571913 6
4.8508248 2.7070265 -1.5818849 6
4.9905152 4.1111751 -1.6022159 7
27.09598 17.868486 7.4733663 46
6.5672336 6.2759328 2.4213285 26
36.214394 23.89003 6.8503857 29
25.769224 24.559095 6.9063263 1
46.644299 30.769892 4.8857331 13
31.325382 29.782799 5.2953019 6
8.254446 5.444757 0.17199345 40
37.092293 35.205334 2.6782925 35
6.2004223 4.0888257 -0.38870814 38
38.256042 36.310066 -0.92005461 28
6.2224507 4.1002369 -0.90937519 41
6.6092143 6.2700262 -0.79240608 39
6.6213751 4.359673 -1.5313504 7
4.9918752 3.2847722 -1.590701 7
5.0157032 4.7733483 -1.5880001 15
28.271019 15.863293 6.8772645 32
8.1280622 6.7166505 2.6163459 15
28.740381 16.152927 4.6285491 16
13.222438 10.912585 3.0137169 26
28.433586 15.993589 2.2730818 18
69.318481 57.139107 9.4381361 1
42.523369 35.026009 1.9226133 46
8.6578436 4.8692775 -0.69043243 2
11.588918 9.5403414 -0.52558482 46
8.5841331 4.8180289 -1.375087 7
11.485106 9.4548492 -1.5546474 9
6.3906937 3.5779178 -1.5507351 6
6.8446388 5.6356111 -1.5571913 6
4.8512979 2.7061799 -1.5818849 6
4.9905152 4.1111751 -1.6022159 7
27.099096 17.863756 7.4733663 46
6.5672336 6.2759328 2.4213285 26
36.218563 23.883705 6.8503857 29
25.769224 24.559095 6.9063263 1
46.64967 30.761749 4.8857331 13
33.164906 31.532108 5.6065397 9
8.2553949 5.4433165 0.17199345 40
58.727753 55.743805 4.2416983 1
6.2011366 4.0877433 -0.38870814 38
38.262375 36.303394 -0.92005461 28
6.223166 4.0991502 -0.90937519 41
6.6103082 6.2688727 -0.79240608 39
6.6213751 4.359673 -1.5313504 7
4.9924483 3.2839007 -1.590701 7
5.0165362 4.7724729 -1.5880001 15
28.299053 15.742928 6.8699937 30
8.1901331 6.7175913 2.6284251 14
28.423073 15.837851 4.5680084 16
13.210925 10.821918 3.0020072 27
28.182693 15.716822 2.2483802 13
69.460083 56.829556 9.4289894 1
42.682404 34.895218 1.9240091 41
11.583181 9.4645987 -0.52374345 118
9.3482819 5.2015462 -1.4948257 5
11.492729 9.3906622 -1.5510012 8
6.4080424 3.5568419 -1.5517756 6
6.8652482 5.6104856 -1.5571913 9
4.8590794 2.6872194 -1.5811962 6
5.009304 4.0959287 -1.6034245 7
26.852434 17.560331 7.3874526 77
6.611207 6.2717772 2.4290833 26
36.283127 23.735928 6.8460932 26
26.154963 24.744497 6.9854403 22
46.772526 30.597378 4.8868227 27
31.36937 29.606461 5.2843494 4
8.2857504 5.4198618 0.1722116 39
40.05732 37.741882 2.8825336 1
6.2181664 4.0663533 -0.38883942 42
38.531639 36.291462 -0.92332697 90
6.2423038 4.0790281 -0.90998369 41
6.6042399 6.2172742 -0.78892684 40
6.6249795 4.3273253 -1.5284933 6
6.8068247 6.4148765 -1.4775869 30
5.0024276 3.2642612 -1.5900544 8
5.0322247 4.7523804 -1.5874386 12
28.299053 15.742928 6.8699937 30
8.1901331 6.7175913 2.6284251 14
28.423073 15.837851 4.5680084 16
13.210925 10.821918 3.0020072 27
28.182693 15.716822 2.2483802 13
69.460083 56.829556 9.4289894 1
42.682404 34.895218 1.9240091 41
11.583181 9.4645987 -0.52374345 118
9.3482819 5.2015462 -1.4948257 5
11.492733 9.3906574 -1.5510012 8
6.4080424 3.5568419 -1.5517756 6
6.8662276 5.6092877 -1.5571913 9
4.8590794 2.6872194 -1.5811962 6
5.0100193 4.0950546 -1.6034245 7
26.852434 17.560331 7.3874526 77
6.6123018 6.2706232 2.4290833 26
36.283127 23.735928 6.8460932 26
26.159283 24.739931 6.9854403 22
46.772526 30.597378 4.8868227 27
33.12331 31.251253 5.5791578 18
8.2857504 5.4198618 0.1722116 39
6.2181664 4.0663533 -0.38883942 42
40.172104 37.823589 -0.96250796 1
6.2423038 4.0790281 -0.90998369 41
6.6053247 6.2161212 -0.78892684 40
6.6257343 4.3261685 -1.5284933 6
6.8079443 6.4136882 -1.4775869 30
5.0029974 3.2633882 -1.5900544 8
5.0322247 4.7523804 -1.5874386 12
28.291729 15.609796 6.8549318 23
8.2643137 6.7303333 2.644732 3
28.129305 15.54579 4.5119915 16
12.446466 10.123147 2.8198571 25
27.944929 15.456639 2.22507 6
69.688911 56.611828 9.4331703 1
42.798138 34.741291 1.9237473 41
11.606449 9.4162369 -0.523305 111
9.4617786 5.2214789 -1.5100968 5
11.450149 9.2893791 -1.5408435 6
6.4225616 3.53563 -1.5522958 6
6.8781195 5.5790806 -1.5554547 9
4.8705387 2.6713955 -1.5818849 6
5.0205173 4.0744829 -1.6022159 8
26.815479 17.40284 7.3604994 70
6.6376653 6.2508168 2.4303758 27
36.330544 23.586275 6.8394589 26
26.386789 24.781214 7.0230913 25
46.899929 30.447487 4.8890014 18
33.205032 31.109991 5.5745945 18
8.3172016 5.3990707 0.1724734 20
40.222725 37.620396 2.884496 63
6.2386069 4.0486994 -0.38923326 41
38.459911 35.958775 -0.91844028 82
6.2565041 4.0572133 -0.90998369 41
6.625164 6.1913247 -0.7887094 47
6.0001588 3.8880916 -1.3804057 31
6.8248844 6.3848219 -1.4764123 34
5.014358 3.2459047 -1.5900544 8
5.0558863 4.7414565 -1.5896847 9
28.291729 15.609796 6.8549318 23
12.373816 10.078382 3.96438 5
28.129305 15.54579 4.5119915 16
12.446466 10.123147 2.8198571 25
27.944929 15.456639 2.22507 6
69.679031 56.623993 9.4331703 1
42.798138 34.741291 1.9237473 41
11.606449 9.4162369 -0.523305 111
9.4608669 5.2231302 -1.5100968 5
11.450145 9.2893839 -1.5408435 6
6.4219451 3.5367508 -1.5522958 6
6.8771453 5.5802808 -1.5554547 9
4.8700719 2.6722457 -1.5818849 6
5.0198059 4.0753589 -1.6022159 8
26.812441 17.40752 7.3604994 70
6.6365738 6.251976 2.4303758 27
36.326427 23.592617 6.8394589 26
26.382463 24.785818 7.0230913 25
46.894611 30.455671 4.8890014 18
33.1996 31.115786 5.5745945 18
8.3162584 5.4005227 0.1724734 20
40.21616 37.627411 2.884496 63
6.2378998 4.049788 -0.38923326 41
38.447361 35.972191 -0.91844028 82
6.255796 4.0583053 -0.90998369 41
6.6230025 6.1936369 -0.7887094 47
5.9994798 3.8891389 -1.3804057 31
6.8226552 6.3872042 -1.4764123 34
5.0132246 3.2476547 -1.5900544 8
5.055059 4.7423387 -1.5896847 9
28.141691 15.405537 6.8061132 13
8.2714996 6.6906824 2.6399002 17
27.855068 15.273921 4.4598012 16
12.485714 10.086459 2.8211579 27
27.738022 15.222337 2.2045431 3
69.905121 56.423855 9.4383974 1
42.957844 34.635246 1.9257542 41
11.637611 9.377696 -0.523305 103
9.4998541 5.2036138 -1.5135676 6
11.504116 9.2700872 -1.5439689 6
6.4400773 3.5189495 -1.5538564 6
6.8994455 5.5605354 -1.5563229 10
4.8746834 2.6537864 -1.5805074 6
5.0332928 4.0586901 -1.6022159 8
26.792204 17.268362 7.3391614 65
7.0238709 6.5733533 2.5647862 18
36.383709 23.458643 6.835557 23
26.588297 24.813747 7.0559769 28
47.016289 30.313494 4.8911805 25
28.889786 26.896252 4.8352904 16
8.3362226 5.374269 0.17251703 16
40.309631 37.464947 2.8822718 81
6.2596898 4.0344882 -0.38975835 38
38.595734 35.871727 -0.91913837 83
6.2963438 4.0549984 -0.91393882 38
6.6380334 6.1665521 -0.78805697 54
5.9875746 3.8532903 -1.3746916 32
5.0178723 3.2270951 -1.5881145 7
5.0671945 4.7222252 -1.5885617 9
28.141691 15.405537 6.8061132 13
12.648558 10.232625 4.0416865 1
27.855068 15.273921 4.4598012 16
12.485714 10.086459 2.8211579 27
27.738022 15.222337 2.2045431 3
69.905121 56.423855 9.4383974 1
36.531864 20.055086 0 1
42.957844 34.635246 1.9257542 41
11.637611 9.377696 -0.523305 103
9.4998541 5.2036138 -1.5135676 6
11.504116 9.2700872 -1.5439689 6
6.4400773 3.5189495 -1.5538564 6
6.8994455 5.5605354 -1.5563229 10
4.8746834 2.6537864 -1.5805074 6
5.0332928 4.0586901 -1.6022159 8
26.792204 17.268362 7.3391614 65
7.0238709 6.5733533 2.5647862 18
36.383709 23.458643 6.835557 23
26.588297 24.813747 7.0559769 28
47.016289 30.313494 4.8911805 25
33.453331 31.145878 5.5998464 3
8.3362226 5.374269 0.17251703 16
40.309631 37.464947 2.8822718 81
6.2596898 4.0344882 -0.38975835 38
38.595734 35.871727 -0.91913837 83
6.2963438 4.0549984 -0.91393882 38
6.6380334 6.1665521 -0.78805697 54
5.9875746 3.8532903 -1.3746916 32
5.0178723 3.2270951 -1.5881145 7
5.0671945 4.7222252 -1.5885617 9
27.834208 15.111238 6.7188621 6
8.2815666 6.6511326 2.6356726 2
27.566736 14.990956 4.4051762 16
12.565016 10.078253 2.8311331 28
27.519348 14.977623 2.1829727 1
43.058971 34.469471 1.9248816 42
18.646259 10.141462 -1.4781064 6
11.681977 9.3463831 -0.52383113 62
9.5288391 5.1763263 -1.5153029 5
11.532522 9.2267675 -1.543448 6
6.4544721 3.4976115 -1.5543766 6
6.9092035 5.5287247 -1.5541524 9
4.8754544 2.6321938 -1.5777528 6
5.0550022 4.0471635 -1.6046333 7
26.77433 17.124861 7.3178229 63
7.0892124 6.5882726 2.5802951 22
36.307293 23.230358 6.8059006 16
6.9812231 6.4652114 1.841083 2
47.195244 30.196163 4.8988066 49
27.968716 25.856865 4.6658287 71
8.3654604 5.351871 0.17273518 14
40.427326 37.312164 2.881356 83
6.292666 4.0247159 -0.39093983 32
36.312782 33.514034 -0.8619377 61
6.3376451 4.0503612 -0.91789395 36
6.6668372 6.1501021 -0.78892684 51
6.0071945 3.8363278 -1.3761202 36
6.5849347 6.0808263 -1.4157271 35
5.0209618 3.2043653 -1.5855279 7
5.0872211 4.7078204 -1.5896847 14
27.834208 15.111238 6.7188621 6
12.479954 10.02431 3.976459 20
27.566736 14.990956 4.4051762 16
12.565016 10.078253 2.8311331 28
27.519348 14.977623 2.1829727 1
43.058971 34.469471 1.9248816 42
18.646259 10.141462 -1.4781064 6
11.681977 9.3463831 -0.52383113 62
9.5297432 5.1746635 -1.5153029 5
11.532522 9.2267675 -1.543448 6
6.4550819 3.4964848 -1.5543766 6
6.9092035 5.5287247 -1.5541524 9
4.8759141 2.6313431 -1.5777528 6
5.0550022 4.0471635 -1.6046333 7
26.777317 17.120186 7.3178229 63
7.0892124 6.5882726 2.5802951 22
36.311348 23.224022 6.8059006 16
26.640553 24.689083 7.0469213 25
47.200512 30.187929 4.8988066 49
27.968716 25.856865 4.6658287 71
8.366395 5.3504114 0.17273518 14
40.427326 37.312164 2.881356 83
6.2933683 4.0236168 -0.39093983 32
38.618557 35.630016 -0.91656411 1
6.3383522 4.0492549 -0.91789395 36
6.6679111 6.1489391 -0.78892684 51
6.0071945 3.8363278 -1.3761202 36
6.5859957 6.0796776 -1.4157271 35
5.0215211 3.2034891 -1.5855279 7
5.0880432 4.7069325 -1.5896847 14
27.514685 14.807522 6.6284947 4
12.537474 9.9951401 3.9831026 29
27.28587 14.708953 4.3515944 16
12.636539 10.059739 2.8389394 34
31.251049 16.866856 0 3
43.233925 34.350281 1.9270629 46
18.731604 10.09908 -1.4819334 7
11.806149 9.3749847 -0.52786463 27
9.5399227 5.1350098 -1.5139146 5
11.539004 9.1627846 -1.5398016 5
6.4592338 3.4681804 -1.5522958 5
6.9178548 5.494174 -1.5515475 9
4.8897657 2.6157184 -1.5791302 6
5.064105 4.0240788 -1.6028202 7
26.757595 16.969742 7.2953625 63
6.6768389 6.1591978 2.4213285 10
36.11055 22.909554 6.752439 9
6.9777842 6.4146538 1.8339343 12
47.308735 30.013391 4.8985887 38
27.858559 25.56624 4.6317534 38
8.3901711 5.3223882 0.17282245 34
40.595097 37.19241 2.8835802 81
6.3418107 4.0219097 -0.39304024 40
36.382217 33.320335 -0.86054146 54
6.4265208 4.0724688 -0.92854232 50
6.6977482 6.1311884 -0.78979665 42
6.0274363 3.8182232 -1.3775487 20
6.6082344 6.0554972 -1.4157271 27
5.0413928 3.1902258 -1.5881145 7
5.0980868 4.6816559 -1.5874386 19
27.514685 14.807522 6.6284947 4
12.537474 9.9951401 3.9831026 29
27.28587 14.708953 4.3515944 16
12.636539 10.059739 2.8389394 34
37.011063 19.974791 0 2
43.233925 34.350281 1.9270629 46
18.733366 10.095811 -1.4819334 7
11.806149 9.3749847 -0.52786463 27
9.5399227 5.1350098 -1.5139146 5
11.539008 9.1627798 -1.5398016 5
6.4592338 3.4681804 -1.5522958 5
6.9188137 5.4929662 -1.5515475 9
4.8897657 2.6157184 -1.5791302 6
5.0648079 4.0231953 -1.6028202 7
26.757595 16.969742 7.2953625 63
6.6779137 6.1580324 2.4213285 10
36.11055 22.909554 6.752439 9
26.977188 24.809248 7.1107845 3
47.308735 30.013391 4.8985887 38
27.86302 25.561378 4.6317534 38
8.3901711 5.3223882 0.17282245 34
40.601589 37.185326 2.8835802 81
6.3418107 4.0219097 -0.39304024 40
36.388031 33.313988 -0.86054146 54
6.4265208 4.0724688 -0.92854232 50
6.6988182 6.1300197 -0.78979665 42
6.0281024 3.8171713 -1.3775487 20
6.6092911 6.0543437 -1.4157271 27
5.0419497 3.1893458 -1.5881145 7
5.0980868 4.6816559 -1.5874386 19
27.240406 14.537572 6.5500722 6
12.63125 9.9979973 4.0018253 27
27.029182 14.449094 4.302536 16
12.702479 10.039998 2.8458784 25
31.265646 16.734076 0 6
43.331989 34.182133 1.9261031 51
18.709101 9.9986305 -1.4772366 7
11.905503 9.3863192 -0.53084594 4
9.5883732 5.1179872 -1.5187734 5
11.572874 9.1239853 -1.5400621 6
6.4713006 3.4456122 -1.5522958 5
6.9418125 5.4718313 -1.5524158 9
4.8924942 2.5952601 -1.5770642 6
5.0826287 4.0084968 -1.6040289 8
26.738314 16.826935 7.274024 68
6.5711894 6.0171885 2.3748021 21
35.98341 22.653131 6.7138076 13
7.0175562 6.4039321 1.8382237 21
47.480659 29.890526 4.905561 1
27.066172 24.656723 4.4848061 20
8.417161 5.2983932 0.17299697 39
40.710827 37.024895 2.8821411 80
6.3727179 4.0103822 -0.39409044 29
11.330293 10.296418 -0.26663128 7
6.4196882 4.0368071 -0.92549998 43
6.7293868 6.1149778 -0.7908839 38
7.3150153 6.6546392 -1.5625463 6
5.0489602 3.1691601 -1.5868212 7
5.1108007 4.6605468 -1.5863156 21
27.240406 14.537572 6.5500722 6
12.63125 9.9979973 4.0018253 27
27.029182 14.449094 4.302536 16
12.702479 10.039998 2.8458784 25
42.765419 22.887287 0 6
43.331989 34.182133 1.9261031 51
18.707355 10.001897 -1.4772366 7
11.905503 9.3863192 -0.53084594 4
9.5883732 5.1179872 -1.5187734 5
11.57287 9.1239901 -1.5400621 6
6.4713006 3.4456122 -1.5522958 5
6.9408574 5.473043 -1.5524158 9
4.8924942 2.5952601 -1.5770642 6
5.0819287 4.0093837 -1.6040289 8
26.738314 16.826935 7.274024 68
6.5701389 6.0183353 2.3748021 21
35.98341 22.653131 6.7138076 13
7.0164385 6.4051566 1.8382237 21
47.480659 29.890526 4.905561 1
27.566187 25.121143 4.5684719 38
8.417161 5.2983932 0.17299697 39
40.722824 37.048798 2.8834493 80
6.3727179 4.0103822 -0.39409044 29
36.374413 33.080444 -0.85761815 1
6.4196882 4.0368071 -0.92549998 43
6.7283187 6.1161523 -0.7908839 38
7.3138537 6.6559162 -1.5625463 6
5.0484076 3.1700413 -1.5868212 7
5.1108007 4.6605468 -1.5863156 21
26.962091 14.274427 6.4716506 6
12.692938 9.978549 4.0108848 28
26.748852 14.185446 4.2503462 13
13.033916 10.231986 2.9126668 25
31.287848 16.612722 0 3
43.474602 34.061363 1.9274118 45
18.802114 9.9725142 -1.4821074 7
9.600915 5.0838475 -1.5180793 5
11.595234 9.0794306 -1.5390203 6
6.4826913 3.4241338 -1.5522958 5
6.9454021 5.4393663 -1.549377 9
4.8968186 2.5767868 -1.5756867 6
5.0856524 3.9850256 -1.601007 8
26.721653 16.693007 7.2543712 66
6.6793299 6.0778298 2.4071124 23
35.890804 22.428997 6.6825895 20
7.048543 6.3917508 1.841083 20
27.150858 24.578232 4.4860225 37
8.4368048 5.2717762 0.1730406 26
40.834351 36.903511 2.8826642 79
6.377511 3.9839387 -0.39356536 2
11.293962 10.198767 -0.26501691 32
6.6898837 4.1757412 -0.96261734 121
6.7929072 6.1338878 -0.79610288 37
6.7342448 4.2017918 -1.5332551 5
7.3285618 6.6249995 -1.5609801 7
5.0568423 3.1520059 -1.5861746 7
5.124423 4.6419363 -1.585754 8
26.962091 14.274427 6.4716506 6
12.692938 9.978549 4.0108848 28
26.748852 14.185446 4.2503462 13
13.033916 10.231986 2.9126668 25
42.836666 22.743004 0 1
43.474602 34.061363 1.9274118 45
18.802114 9.9725142 -1.4821074 7
9.600028 5.0855231 -1.5180793 5
11.595234 9.0794306 -1.5390203 6
6.4820938 3.4252653 -1.5522958 5
6.9454021 5.4393663 -1.549377 9
4.896369 2.5776415 -1.5756867 6
5.0856524 3.9850256 -1.601007 8
26.71874 16.69767 7.2543712 66
6.6793299 6.0778298 2.4071124 23
35.886887 22.435263 6.6825895 20
7.048543 6.3917508 1.841083 20
27.150858 24.578232 4.4860225 37
8.4358854 5.2732491 0.1730406 26
40.834351 36.903511 2.8826642 79
8.3629608 5.2256513 -0.51670223 40
11.292185 10.200732 -0.26501691 32
8.4426613 5.2713456 -1.2160497 1
6.7918372 6.1350737 -0.79610288 37
6.7342448 4.2017918 -1.5332551 5
7.3274055 6.6262784 -1.5609801 7
5.0562921 3.1528888 -1.5861746 7
5.1236129 4.6428308 -1.585754 8
26.680727 14.000566 6.3916702 6
26.49604 13.927243 4.2019835 16
13.19562 10.281006 2.940423 29
31.036566 16.333805 0 16
43.610985 33.910995 1.9279354 51
18.871658 9.9209347 -1.4847168 7
9.6339493 5.0583534 -1.5205088 4
11.634323 9.0414486 -1.5398016 6
6.4881034 3.3980842 -1.5507351 5
6.965292 5.4138737 -1.549377 9
4.9079151 2.5607879 -1.5763755 6
5.102138 3.9678483 -1.6016114 9
26.707285 16.554708 7.2347174 58
6.6621523 6.0176735 2.3928957 29
35.849251 22.229406 6.6603465 25
7.0883307 6.3806591 1.8453724 10
27.262903 24.498459 4.4896736 39
8.4636545 5.2475615 0.17321514 13
40.960041 36.745258 2.88201 57
8.3587122 5.1805015 -0.51525819 39
11.292286 10.125891 -0.2641443 75
8.2593794 5.1149774 -1.1868426 38
6.8476386 6.1400833 -0.80001706 36
6.7516861 4.1783724 -1.5337311 6
7.3626633 6.6092796 -1.5633292 7
5.0657592 3.1330652 -1.5855279 7
5.1333547 4.6174989 -1.5835079 6
26.680727 14.000566 6.3916702 6
26.49604 13.927243 4.2019835 16
13.19562 10.281006 2.940423 29
31.036566 16.333805 0 16
43.610985 33.910995 1.9279354 51
18.871658 9.9209347 -1.4847168 7
9.6348324 5.0566721 -1.5205088 4
11.634323 9.0414486 -1.5398016 6
6.4886971 3.3969517 -1.5507351 5
6.965292 5.4138737 -1.549377 9
4.9083619 2.5599313 -1.5763755 6
5.102138 3.9678483 -1.6016114 9
26.710175 16.550047 7.2347174 58
6.6621523 6.0176735 2.3928957 29
35.85313 22.22315 6.6603465 25
7.0883307 6.3806591 1.8453724 10
27.262903 24.498459 4.4896736 39
8.4645691 5.2460842 0.17321514 13
40.976768 36.760265 2.8831878 57
8.3596172 5.1790423 -0.51525819 39
11.29405 10.123924 -0.2641443 75
8.260272 5.1135359 -1.1868426 38
6.8487101 6.1388884 -0.80001706 36
6.7516861 4.1783724 -1.5337311 6
7.3638167 6.6079936 -1.5633292 7
5.0663066 3.1321809 -1.5855279 7
5.1341605 4.6166029 -1.5835079 6
26.425701 13.749369 6.3189607 9
13.496562 10.455071 4.2415967 23
26.245899 13.679099 4.1546645 8
13.227531 10.231868 2.9395556 31
31.104473 16.23115 0 1
42.404064 32.735565 1.8694786 37
18.948195 9.876895 -1.488022 7
9.6568193 5.0252938 -1.5212029 5
11.659907 8.9962254 -1.5390203 5
6.5113692 3.3799078 -1.5533361 5
6.9783015 5.3850141 -1.5480747 9
4.9108601 2.5394754 -1.5743093 7
5.1140375 3.9485316 -1.601007 8
26.66194 16.391649 7.2060795 50
6.6741319 5.9863143 2.3896646 26
35.825314 22.033186 6.6408353 30
7.1050739 6.3509679 1.8439428 22
27.359362 24.413057 4.4914989 40
8.4849596 5.2178144 0.17325875 13
41.09552 36.608704 2.8825336 72
8.3818989 5.1524448 -0.51552075 41
11.331187 10.086102 -0.26418793 55
8.2865295 5.0898647 -1.1880596 39
11.39803 10.149186 -1.32952 37
6.7641397 4.1534958 -1.5332551 6
7.3776231 6.5740309 -1.5613716 9
5.07515 3.1132154 -1.5848814 7
5.15206 4.6002769 -1.5840695 6
26.425701 13.749369 6.3189607 9
13.496562 10.455071 4.2415967 23
26.245899 13.679099 4.1546645 8
13.227531 10.231868 2.9395556 31
31.104473 16.23115 0 1
42.404064 32.735565 1.8694786 37
18.948195 9.876895 -1.488022 7
9.6568193 5.0252938 -1.5212029 5
11.659907 8.9962254 -1.5390203 5
6.5113692 3.3799078 -1.5533361 5
6.9783015 5.3850141 -1.5480747 9
4.9108601 2.5394754 -1.5743093 7
5.1140375 3.9485316 -1.601007 8
26.66194 16.391649 7.2060795 50
6.6741319 5.9863143 2.3896646 26
35.825314 22.033186 6.6408353 30
7.1050739 6.3509679 1.8439428 22
27.359362 24.413057 4.4914989 40
8.4849596 5.2178144 0.17325875 13
41.09552 36.608704 2.8825336 72
8.3818989 5.1524448 -0.51552075 41
11.331187 10.086102 -0.26418793 55
8.2865295 5.0898647 -1.1880596 39
11.39803 10.149186 -1.32952 37
6.7641397 4.1534958 -1.5332551 6
7.3776231 6.5740309 -1.5613716 9
5.07515 3.1132154 -1.5848814 7
5.15206 4.6002769 -1.5840695 6
26.17341 13.508053 6.2478094 6
13.219704 10.170577 4.1437554 27
25.985411 13.434 4.1063018 8
13.271151 10.19545 2.9417243 32
39.334736 20.350338 3.0866737 1
42.526852 32.629433 5.6301641 73
29.788177 15.419012 0 16
42.496529 32.582611 1.8687807 43
19.022938 9.8357601 -1.491327 8
28.298016 21.687738 -1.2500396 2
9.6844311 4.9989171 -1.5229383 5
11.689675 8.95751 -1.5390203 6
6.5160184 3.3549426 -1.5517756 6
7.0000281 5.3648396 -1.5489429 9
4.9256725 2.5264623 -1.5763755 6
5.1213298 3.9271207 -1.5991938 8
26.624647 16.247311 7.1813722 41
6.6831326 5.954504 2.3857875 27
35.830734 21.873096 6.6283484 34
7.1352677 6.3355236 1.8463256 20
27.642555 24.501633 4.5246611 29
8.5128851 5.1961579 0.1734769 22
41.222298 36.477188 2.882926 85
8.4138584 5.1337209 -0.51643968 40
11.355212 10.040189 -0.26396978 64
8.2991247 5.0597749 -1.1874511 38
6.7820673 4.1335959 -1.5342072 5
7.4067755 6.5560794 -1.5629376 8
5.0854459 3.0963686 -1.5848814 7
5.1636443 4.5799317 -1.5829463 5
26.17341 13.508053 6.2478094 6
13.219704 10.170577 4.1437554 27
25.985411 13.434 4.1063018 8
13.271151 10.19545 2.9417243 32
39.334736 20.350338 3.0866737 1
42.521152 32.636856 5.6301641 73
29.788177 15.419012 0 16
42.496529 32.582611 1.8687807 43
19.022938 9.8357601 -1.491327 8
28.298016 21.687738 -1.2500396 2
9.6835594 5.000607 -1.5229383 5
11.689675 8.95751 -1.5390203 6
6.5154328 3.3560801 -1.5517756 6
7.0000281 5.3648396 -1.5489429 9
4.9252319 2.5273218 -1.5763755 6
5.1213298 3.9271207 -1.5991938 8
26.621811 16.251959 7.1813722 41
6.6831326 5.954504 2.3857875 27
35.826916 21.879349 6.6283484 34
7.1352677 6.3355236 1.8463256 20
27.642555 24.501633 4.5246611 29
8.5119772 5.1976442 0.1734769 22
41.222298 36.477188 2.882926 85
8.412962 5.1351886 -0.51643968 40
11.353463 10.042166 -0.26396978 64
8.2982426 5.061224 -1.1874511 38
6.7820673 4.1335959 -1.5342072 5
7.4056315 6.5573721 -1.5629376 8
5.0849056 3.0972559 -1.5848814 7
5.1628447 4.5808325 -1.5829463 5
25.943903 13.275177 6.1818519 6
13.176088 10.063985 4.1189933 25
25.761145 13.204354 4.0635061 7
13.312531 10.153543 2.9430254 28
39.512051 20.267536 3.0950236 1
42.59922 32.461098 5.6254601 87
29.8218 15.304668 0 4
42.596085 32.423477 1.8681699 51
19.066034 9.7738476 -1.4920229 8
27.556377 20.966986 -1.2140009 4
9.7031593 4.9679022 -1.5232854 5
11.714936 8.9121332 -1.5382389 6
6.5292859 3.3344271 -1.5522958 6
7.0108757 5.3344069 -1.5472064 8
4.9340234 2.5101142 -1.5763755 7
5.1311469 3.9062798 -1.597985 7
26.580442 16.099619 7.1549807 39
6.7508836 5.9727712 2.4025888 26
35.814369 21.700413 6.611959 2
7.1646996 6.3170738 1.848232 10
31.981892 19.378462 3.2685583 1
27.828485 24.493534 4.54109 29
8.5300694 5.1679001 0.1734769 38
41.34375 36.328129 2.8825336 83
8.4393778 5.1109624 -0.51696473 40
11.388447 10.002474 -0.26396978 60
8.3328438 5.0425014 -1.1898851 39
11.296748 9.9253721 -1.309949 30
6.8090572 4.1175137 -1.5370643 6
7.4173546 6.5216942 -1.5605886 7
5.0853496 3.073245 -1.5816482 7
5.1842837 4.5676179 -1.584631 5
25.943903 13.275177 6.1818519 6
13.176088 10.063985 4.1189933 25
25.761145 13.204354 4.0635061 7
13.312531 10.153543 2.9430254 28
39.512051 20.267536 3.0950236 1
42.604889 32.453667 5.6254601 87
29.8218 15.304668 0 4
42.596085 32.423477 1.8681699 51
19.066034 9.7738476 -1.4920229 8
27.556377 20.966986 -1.2140009 4
9.7040262 4.9662089 -1.5232854 5
11.714936 8.9121332 -1.5382389 6
6.5298676 3.3332875 -1.5522958 6
7.0108757 5.3344069 -1.5472064 8
4.9344616 2.509253 -1.5763755 7
5.1311469 3.9062798 -1.597985 7
26.58325 16.094978 7.1549807 39
6.7508836 5.9727712 2.4025888 26
35.818153 21.694164 6.611959 2
