# .PCD v0.7 - Point Cloud Data file format
VERSION 0.7
FIELDS x y z intensity
SIZE 4 4 4 4
TYPE F F F F
COUNT 1 1 1 1
WIDTH 1459
HEIGHT 1
VIEWPOINT 0 0 0 1 0 0 0
POINTS 1459
DATA ascii
7.84092 6.951385 2.600039 4
11.782167 7.1741838 1.93381 4
7.8885202 6.9837947 1.8496909 6
11.811024 7.197372 0.96232408 6
7.9036851 6.9874034 1.1051272 3
11.814917 7.2025561 0 6
7.9353299 7.0104647 0.36853865 10
9.6808863 5.8955584 -0.78819579 20
7.8503747 6.9329424 -0.36634856 12
5.6881838 3.4592671 -0.92840934 21
5.9716091 5.2730799 -0.83084697 26
4.5223827 2.7437663 -1.1179235 19
3.9883068 3.5220912 -0.93205726 28
3.3474288 2.9577446 -1.1042054 23
9.8634081 7.0064015 2.780683 9
6.7483187 6.9134307 2.5757718 4
9.8614883 7.0076132 1.9062451 3
6.7972856 6.9394388 1.8796873 5
9.8563051 7.0039229 1.0548024 3
6.8202271 6.9459291 1.1892753 3
9.8426228 6.9916182 0.21012697 3
6.8327961 6.9466338 0.50883633 8
8.879055 6.3050213 -0.57078791 10
6.8878713 7.0002341 -0.17081679 7
5.4617963 3.8763335 -0.81688601 25
5.6118293 5.7041516 -0.69563866 22
4.461988 3.1659558 -1.054708 18
3.8191235 3.8839157 -0.85820627 21
3.5747614 2.5340364 -1.1639276 24
3.0427589 3.1005602 -0.99334246 19
11.800399 7.1740332 2.9255121 6
7.84092 6.951385 2.600039 4
11.782167 7.1741838 1.93381 4
7.8848333 6.9805293 1.8488234 6
11.811024 7.197372 0.96232408 6
16.472675 14.565944 2.3074658 1
11.814917 7.2025561 0 6
16.73427 14.786901 0.77860773 1
9.6808863 5.8955584 -0.78819579 20
7.8503747 6.9329424 -0.36634856 12
5.6881838 3.4592671 -0.92840934 21
5.9716091 5.2730799 -0.83084697 26
4.5223827 2.7437663 -1.1179235 19
3.9883068 3.5220912 -0.93205726 28
3.3474288 2.9577446 -1.1042054 23
9.8634081 7.0064015 2.780683 9
6.7483187 6.9134307 2.5757718 4
9.8534355 7.0018926 1.9046842 3
6.7972856 6.9394388 1.8796873 5
9.8563051 7.0039229 1.0548024 3
6.8202271 6.9459291 1.1892753 3
6.8327961 6.9466338 0.50883633 8
8.879055 6.3050213 -0.57078791 10
6.8721008 6.9841914 -0.17042412 7
5.4617963 3.8763335 -0.81688601 25
5.6118293 5.7041516 -0.69563866 22
4.461988 3.1659558 -1.054708 18
3.8191235 3.8839157 -0.85820627 21
3.5747614 2.5340364 -1.1639276 24
3.0427589 3.1005602 -0.99334246 19
11.821178 7.1302733 2.9244733 5
7.9070106 6.9608502 2.61393 3
11.739318 7.0920682 1.9226762 4
7.9461288 6.9854832 1.8574973 3
11.562848 6.9910188 0.94005769 10
7.948576 6.977818 1.1080017 4
11.527614 6.9724631 0 25
7.9879203 7.007443 0.36984739 3
9.7419739 5.88622 -0.79150105 20
7.9703135 6.9895291 -0.37082052 6
5.8825965 3.5492742 -0.9582572 28
4.6052933 2.7720428 -1.1361307 19
4.0801473 3.5779786 -0.95072448 24
3.9209735 2.3516159 -1.300217 19
3.3978326 2.9812579 -1.1175017 23
9.937583 7.0070176 2.7947214 5
6.797792 6.915679 2.5854647 4
9.9444141 7.0144162 1.9175617 4
6.8438606 6.9383936 1.8858831 4
9.9315767 7.0053563 1.0602497 5
6.877564 6.9556212 1.1950557 4
9.9343882 7.0047431 0.21156678 8
6.8798308 6.9458103 0.51053727 8
8.8438673 6.2337246 -0.56711221 5
6.9368844 7.001018 -0.17142765 5
5.3981943 3.802958 -0.80532491 23
5.6194429 5.6721363 -0.69411647 27
4.4429078 3.1291721 -1.0475656 22
3.7857895 3.8231492 -0.84763533 20
3.5697565 2.5118203 -1.1594012 21
3.1476421 3.1853218 -1.0242264 19
11.821178 7.1302733 2.9244733 5
7.9070106 6.9608502 2.61393 3
22.094648 13.343736 3.6226754 1
7.9572225 6.9952393 1.8600996 3
11.562848 6.9910188 0.94005769 10
16.416937 14.414837 2.2925704 1
11.527614 6.9724631 0 25
16.387674 14.379019 0.76011097 1
9.7419739 5.88622 -0.79150105 20
16.164705 14.17835 -0.75339085 1
5.8825965 3.5492742 -0.9582572 28
4.6052933 2.7720428 -1.1361307 19
4.0801473 3.5779786 -0.95072448 24
3.9209735 2.3516159 -1.300217 19
3.3978326 2.9812579 -1.1175017 23
9.937583 7.0070176 2.7947214 5
6.797792 6.915679 2.5854647 4
9.9343243 7.0073013 1.9156106 4
6.8438606 6.9383936 1.8858831 4
15.477875 10.91639 1.653998 1
6.877564 6.9556212 1.1950557 4
15.524184 10.944989 0.33094123 1
6.8798308 6.9458103 0.51053727 8
12.580567 8.8667479 -0.80747849 1
6.9333673 6.9974651 -0.17134039 5
5.3981943 3.802958 -0.80532491 23
5.6194429 5.6721363 -0.69411647 27
4.4429078 3.1291721 -1.0475656 22
3.7857895 3.8231492 -0.84763533 20
3.5697565 2.5118203 -1.1594012 21
3.1476421 3.1853218 -1.0242264 19
11.616014 6.9541869 2.8678639 18
7.9665675 6.9665375 2.6260092 7
11.59713 6.9538479 1.8955375 15
7.9915013 6.9785337 1.8627018 3
11.530359 6.9192896 0.93553489 29
8.0110168 6.985745 1.1134895 7
11.557103 6.938056 0 24
8.0393648 7.0055423 0.37115616 3
8.1077671 4.8630028 -0.65703285 12
7.8917322 6.8744226 -0.36608553 15
5.9410806 3.5577025 -0.96589279 25
4.7026677 2.8093591 -1.1579794 18
4.1588001 3.6226702 -0.96635288 22
3.9411478 2.3459644 -1.3043491 23
3.2614582 2.8423989 -1.0691512 26
10.022634 7.0173306 2.8121285 5
6.8495512 6.922297 2.5964503 4
10.022235 7.0196428 1.9280977 8
6.8858438 6.9348249 1.8911257 5
10.024116 7.0209527 1.0676578 9
6.9180889 6.9503703 1.1980981 3
10.018996 7.0147624 0.21287571 7
6.9574471 6.9777884 0.51459324 5
8.7499399 6.1242137 -0.55976075 9
6.9829988 7.0009933 -0.17199485 6
5.5938044 3.9130039 -0.83270657 21
5.6417365 5.6569991 -0.69455135 22
4.4130273 3.0863032 -1.0380422 21
3.8437302 3.8560798 -0.85781479 20
3.6453905 2.5469697 -1.1813865 17
3.2079597 3.2250044 -1.0405107 22
11.616014 6.9541869 2.8678639 18
7.9665675 6.9665375 2.6260092 7
11.59713 6.9538479 1.8955375 15
7.9915013 6.9785337 1.8627018 3
11.530359 6.9192896 0.93553489 29
16.362854 14.276547 2.2787204 1
11.557103 6.938056 0 24
16.260115 14.17191 0.75199682 1
9.9240255 5.9513035 -0.80472165 1
7.8917322 6.8744226 -0.36608553 15
5.9404597 3.5587394 -0.96589279 25
4.702177 2.8101795 -1.1579794 18
4.1588001 3.6226702 -0.96635288 22
3.940738 2.3466527 -1.3043491 23
3.2614582 2.8423989 -1.0691512 26
10.021409 7.0190802 2.8121285 5
6.8495512 6.922297 2.5964503 4
10.021008 7.0213919 1.9280977 8
6.8858438 6.9348249 1.8911257 5
10.02289 7.0227017 1.0676578 9
6.9180889 6.9503703 1.1980981 3
10.017772 7.016511 0.21287571 7
6.9574471 6.9777884 0.51459324 5
8.7488708 6.1257405 -0.55976075 9
6.9711971 6.9915829 -0.17173307 6
5.5931211 3.9139798 -0.83270657 21
5.640749 5.6579833 -0.69455135 22
4.4130273 3.0863032 -1.0380422 21
3.8430572 3.8567507 -0.85781479 20
3.6449461 2.547606 -1.1813865 17
3.2073967 3.2255642 -1.0405107 22
11.579231 6.8774009 2.8528028 32
8.0256338 6.968914 2.6374843 6
11.568131 6.8816977 1.8868392 27
8.0604486 6.9893146 1.8731102 4
11.539438 6.8700724 0.93431717 40
8.0642023 6.9851928 1.1176707 7
11.572658 6.8925581 0 28
8.0977716 7.0068698 0.37272659 3
10.099089 6.0083814 -0.81724656 25
7.9232378 6.8533721 -0.36643627 14
6.0145874 3.5746264 -0.97595775 24
5.5404987 4.791553 -0.76364994 31
4.6404114 2.7514024 -1.1402923 20
4.1621127 3.6000745 -0.9641822 21
3.9468355 2.3316622 -1.3036605 21
10.09986 7.0215945 2.8272898 8
6.8958211 6.9205947 2.6048508 4
10.118446 7.0371175 1.9421458 9
6.9429626 6.9437356 1.9001808 5
10.094373 7.0203719 1.0726693 6
6.9686465 6.9524813 1.2026618 4
10.099675 7.0214438 0.21409738 3
7.0012112 6.9728484 0.51603252 2
8.8255568 6.1336241 -0.5633052 5
7.0415864 7.0130882 -0.17286748 4
5.3621473 3.7246194 -0.79619771 27
6.0149336 5.9917397 -0.73825985 26
4.3108492 2.9925416 -1.0113769 22
3.9176583 3.9043674 -0.8715179 19
3.5565662 2.4674523 -1.1497017 23
3.1962504 3.191947 -1.0332109 18
11.579231 6.8774009 2.8528028 32
8.0256338 6.968914 2.6374843 6
11.568131 6.8816977 1.8868392 27
8.0288305 6.9618878 1.8657376 4
11.539438 6.8700724 0.93431717 40
16.31547 14.130202 2.2648704 1
11.572658 6.8925581 0 28
16.133804 13.962993 0.74388272 2
10.099089 6.0083814 -0.81724656 25
7.9232378 6.8533721 -0.36643627 14
6.0152111 3.5735767 -0.97595775 24
5.5404987 4.791553 -0.76364994 31
4.6408911 2.7505925 -1.1402923 20
4.1621127 3.6000745 -0.9641822 21
3.9472425 2.3309734 -1.3036605 21
10.101085 7.0198317 2.8272898 8
6.8958211 6.9205947 2.6048508 4
10.107508 7.026895 1.9398044 9
6.9429626 6.9437356 1.9001808 5
10.089462 7.0143461 1.0720156 6
6.9686465 6.9524813 1.2026618 4
15.468997 10.749218 0.3281925 1
7.0012112 6.9728484 0.51603252 2
12.87849 8.946105 -0.82270646 1
7.0286422 6.9977489 -0.17251843 4
5.3627977 3.7236834 -0.79619771 27
6.0159798 5.9906898 -0.73825985 26
4.3108492 2.9925416 -1.0113769 22
3.9183393 3.9036837 -0.8715179 19
3.5569966 2.4668312 -1.1497017 23
3.1968076 3.1913891 -1.0332109 18
11.617005 6.8423567 2.8559189 37
8.08603 6.969552 2.6489596 3
11.599673 6.8430228 1.8878829 31
8.1046686 6.9757895 1.8774472 9
11.573133 6.8328023 0.93501306 38
8.1248989 6.9833546 1.1223744 3
11.597842 6.8500953 0 24
8.1556149 7.0048242 0.37420982 7
8.1573973 4.8137264 -0.65825051 10
7.8516431 6.7412629 -0.36196432 16
5.8596931 3.4523258 -0.94853932 21
5.1675901 4.4358625 -0.70973605 14
4.7901411 2.8152325 -1.174626 21
4.2294345 3.6313262 -0.97677177 21
3.9702842 2.3249779 -1.3084812 22
3.5576224 3.0562227 -1.1598084 22
10.19093 7.0270066 2.8452587 5
6.9433708 6.9174428 2.6132514 3
10.192148 7.0304556 1.951121 9
6.9857736 6.9355402 1.9049467 10
10.182762 7.0239754 1.079206 4
7.0187535 6.9513507 1.2069211 5
10.194476 7.029428 0.21553721 4
7.0852814 7.0050912 0.52035022 2
8.83671 6.0911918 -0.56251752 22
7.0808983 6.9983096 -0.17317289 4
5.8117328 4.0037522 -0.86100096 26
5.9670854 5.8985262 -0.72956163 26
4.339983 2.9892447 -1.0156624 17
3.8484206 3.805886 -0.85272497 18
3.5958641 2.4743011 -1.1594012 24
3.1376107 3.1092715 -1.0101882 23
11.617005 6.8423567 2.8559189 37
8.08603 6.969552 2.6489596 3
11.599673 6.8430228 1.8878829 31
8.1046686 6.9757895 1.8774472 9
11.573133 6.8328023 0.93501306 38
16.056086 13.802845 2.2217524 1
11.597842 6.8500953 0 24
16.080647 13.814211 0.73908406 1
10.218774 6.026536 -0.82507455 1
7.8516431 6.7412629 -0.36196432 16
5.8596931 3.4523258 -0.94853932 21
5.167594 4.4358573 -0.70973605 14
4.7901411 2.8152325 -1.174626 21
4.2300677 3.6305878 -0.97677177 21
3.9702842 2.3249779 -1.3084812 22
3.5581558 3.0556018 -1.1598084 22
10.19093 7.0270066 2.8452587 5
6.9445786 6.9162307 2.6132514 3
10.202312 7.0374646 1.9530721 9
6.9869843 6.9343204 1.9049467 10
15.58519 10.74947 1.6533444 2
7.0199661 6.9501247 1.2069211 5
20.214987 13.936957 0.42797661 1
7.086504 7.0038548 0.52035022 2
8.83671 6.0911918 -0.56251752 22
7.0767879 6.9918008 -0.173042 4
5.8117328 4.0037522 -0.86100096 26
5.9681144 5.8974848 -0.72956163 26
4.3405046 2.9884872 -1.0156624 17
3.8490851 3.8052139 -0.85272497 18
3.5962958 2.4736733 -1.1594012 24
3.1376107 3.1092715 -1.0101882 23
11.655602 6.8103957 2.8595543 17
8.1490078 6.9744177 2.6616428 4
11.640587 6.81249 1.8906665 9
8.1663961 6.9794559 1.8861209 3
11.607675 6.7986603 0.93588281 29
8.1794796 6.9807811 1.1265556 3
11.671302 6.8386226 0 9
8.2066259 6.9990158 0.3754313 9
10.291421 6.0210371 -0.8292495 24
7.8751264 6.7138143 -0.36196432 21
5.9978647 3.505482 -0.96901637 27
5.3097959 4.5258937 -0.72718644 24
4.5991664 2.6816418 -1.1252064 19
4.2483344 3.6205928 -0.97807407 26
3.9970882 2.3219521 -1.3146793 21
3.5724905 3.0463126 -1.1610172 22
10.271692 7.0299082 2.8609815 4
6.9927068 6.9157338 2.6222982 4
10.289986 7.0450468 1.9651691 9
7.0391002 6.9374657 1.9125723 5
10.272984 7.0334029 1.0861784 3
7.0618711 6.9429836 1.2099636 5
10.274651 7.0319095 0.21671525 6
7.0895371 6.9580803 0.51878011 3
9.1093206 6.232255 -0.57853317 24
7.1386027 7.0038342 -0.17395826 3
5.8605008 4.0072432 -0.86617303 23
6.059732 5.9464297 -0.73825985 27
4.6224895 3.1587853 -1.0794687 24
3.9222021 3.8506184 -0.86603659 18
3.7046573 2.5291486 -1.1917325 16
2.9940672 2.9460633 -0.96021229 23
11.655602 6.8103957 2.8595543 17
8.1490078 6.9744177 2.6616428 4
11.640587 6.81249 1.8906665 9
8.1663961 6.9794559 1.8861209 3
11.607675 6.7986603 0.93588281 29
15.969914 13.632092 2.2031987 1
11.671302 6.8386226 0 9
16.043236 13.68502 0.73515785 1
10.290369 6.0228329 -0.8292495 24
7.8751264 6.7138143 -0.36196432 21
5.9978647 3.505482 -0.96901637 27
5.3097925 4.5258989 -0.72718644 24
4.5991664 2.6816418 -1.1252064 19
4.2477026 3.6213341 -0.97807407 26
3.9970882 2.3219521 -1.3146793 21
3.5719588 3.046936 -1.1610172 22
10.271692 7.0299082 2.8609815 4
6.9914999 6.916954 2.6222982 4
10.275721 7.0352831 1.9624374 9
7.03789 6.938694 1.9125723 5
15.686326 10.738609 1.6600989 1
7.0606589 6.9442163 1.2099636 5
10.266399 7.0262637 0.21654071 6
7.0883217 6.9593177 0.51878011 3
9.1093206 6.232255 -0.57853317 24
20.559229 20.19009 -0.50237155 1
5.8605008 4.0072432 -0.86617303 23
6.0586934 5.9474874 -0.73825985 27
4.6219382 3.1595924 -1.0794687 24
3.92153 3.8513029 -0.86603659 18
3.7042158 2.5297952 -1.1917325 16
2.9940672 2.9460633 -0.96021229 23
8.19981 6.9709306 2.670702 7
12.121326 7.0397882 1.965124 3
8.2214003 6.9794316 1.8934938 3
8.2272348 6.9745231 1.1299527 5
12.100291 7.0360179 0 5
8.2641001 7.0008388 0.37700179 4
10.27793 5.9698982 -0.82664019 27
8.2176123 6.9589791 -0.37669542 3
5.9901743 3.4744055 -0.96589279 25
5.1692066 4.3764768 -0.7058292 22
4.7266116 2.7348645 -1.1543379 18
4.2277579 3.5801685 -0.97069401 27
4.025598 2.3206682 -1.3215659 20
3.557992 3.0146773 -1.1531602 23
10.359433 7.0396142 2.8789504 5
7.0385017 6.9174428 2.6313453 4
10.370477 7.0497479 1.9760953 4
7.0783863 6.9324975 1.9173383 6
10.353927 7.0384936 1.0922793 4
7.1120338 6.9485221 1.2148314 5
10.366145 7.0441527 0.21815507 10
7.1649556 6.9880924 0.52270538 3
9.0431929 6.143106 -0.57301956 23
7.1838279 7.0040689 -0.17452547 3
5.783411 3.9264803 -0.85278642 24
6.1496682 5.9969516 -0.74695802 28
3.8848333 3.7899568 -0.85507417 20
3.7385743 2.5351069 -1.2001386 21
3.2822587 3.2088807 -1.0500566 26
8.19981 6.9709306 2.670702 7
12.121326 7.0397882 1.965124 3
8.2326584 6.9889932 1.8960958 3
15.924016 13.50187 2.1906552 1
12.100291 7.0360179 0 5
15.76259 13.355524 0.72023833 1
10.27793 5.9698982 -0.82664019 27
8.2176123 6.9589791 -0.37669542 3
5.9901743 3.4744055 -0.96589279 25
5.1692066 4.3764768 -0.7058292 22
4.7266116 2.7348645 -1.1543379 18
4.2277579 3.5801685 -0.97069401 27
4.025598 2.3206682 -1.3215659 20
3.557992 3.0146773 -1.1531602 23
10.359433 7.0396142 2.8789504 5
7.0385017 6.9174428 2.6313453 4
10.366392 7.0469723 1.9753149 4
7.0783863 6.9324975 1.9173383 6
20.329699 13.818024 2.1475174 1
7.1120338 6.9485221 1.2148314 5
10.366145 7.0441527 0.21815507 10
7.1453047 6.9689093 0.5212661 3
9.0431929 6.143106 -0.57301956 23
7.1891947 7.009306 -0.17465636 3
5.783411 3.9264803 -0.85278642 24
6.1496682 5.9969516 -0.74695802 28
3.8848333 3.7899568 -0.85507417 20
3.7385743 2.5351069 -1.2001386 21
3.2822587 3.2088807 -1.0500566 26
12.458591 7.1659636 3.0449631 3
8.2648706 6.9766998 2.683989 4
12.454779 7.1753044 2.0152264 4
8.2871208 6.9856091 1.9030348 4
12.276024 7.0780778 0.98598212 2
8.2876644 6.976191 1.1349179 9
12.393353 7.14855 0 5
8.309516 6.989645 0.37796155 3
10.382998 5.9825134 -0.83342445 25
8.1672878 6.867528 -0.3732757 17
6.1031604 3.5114443 -0.98220497 26
5.2358255 4.4016209 -0.71286148 28
4.8973794 2.810735 -1.1938735 21
4.3344193 3.6446486 -0.99240005 21
3.9501801 2.2589588 -1.294019 21
3.5350928 2.9741135 -1.1422813 22
10.448577 7.0469909 2.8969193 7
7.0954289 6.9248962 2.6436231 4
10.468721 7.0632167 1.9901434 4
7.1271605 6.9317126 1.9240105 7
10.448632 7.0496593 1.0996876 3
7.1576066 6.9443984 1.2184823 5
10.456991 7.0526419 0.21955127 9
7.1893053 6.9630394 0.52270538 3
9.0625114 6.1101055 -0.57288831 9
7.235158 7.0050416 -0.17517993 4
5.9061646 3.9797347 -0.86891121 25
6.1437416 5.9494462 -0.74369621 29
4.629087 3.1184642 -1.0761355 19
4.0220766 3.8967421 -0.88248032 23
3.673255 2.4721801 -1.1762135 24
3.3283639 3.2313778 -1.0612873 27
12.458591 7.1659636 3.0449631 3
8.2648706 6.9766998 2.683989 4
8.2814741 6.9808478 1.9017338 3
12.276024 7.0780778 0.98598212 2
8.2876644 6.976191 1.1349179 9
12.393353 7.14855 0 5
15.669561 13.18299 0.71386915 1
10.382998 5.9825134 -0.83342445 25
8.1672878 6.867528 -0.3732757 17
6.1031604 3.5114443 -0.98220497 26
5.2358255 4.4016209 -0.71286148 28
4.8973794 2.810735 -1.1938735 21
4.3344193 3.6446486 -0.99240005 21
3.9501801 2.2589588 -1.294019 21
3.5350928 2.9741135 -1.1422813 22
10.448577 7.0469909 2.8969193 7
7.0954289 6.9248962 2.6436231 4
10.468721 7.0632167 1.9901434 4
7.1271605 6.9317126 1.9240105 7
15.810676 10.666404 1.6655462 1
7.1576066 6.9443984 1.2184823 5
10.456991 7.0526419 0.21955127 9
7.1893053 6.9630394 0.52270538 3
9.0625114 6.1101055 -0.57288831 9
20.785933 20.136658 -0.50455314 1
5.9061646 3.9797347 -0.86891121 25
6.1437416 5.9494462 -0.74369621 29
4.629087 3.1184642 -1.0761355 19
4.0220766 3.8967421 -0.88248032 23
3.673255 2.4721801 -1.1762135 24
3.3283639 3.2313778 -1.0612873 27
11.675289 6.6589065 2.8470898 7
8.333148 6.9822035 2.69788 3
11.709137 6.6889911 1.8903184 21
8.3409891 6.9788928 1.9095403 7
12.50327 7.1480923 1.0021601 8
8.3322554 6.9617133 1.1375309 4
11.653286 6.6651669 0 17
8.3810997 6.997581 0.38005549 3
8.132844 4.6474333 -0.65094429 15
8.1597986 6.8103242 -0.37178504 30
6.0880241 3.47312 -0.97769308 26
5.5649319 4.6437464 -0.7555759 21
4.7226734 2.6876857 -1.1486156 20
4.2041392 3.5087891 -0.95940697 23
3.9939916 2.2645836 -1.3057264 19
3.5292182 2.9471352 -1.1368419 25
10.539131 7.0519915 2.9148881 7
7.1415663 6.9190187 2.6513777 5
10.545844 7.0591321 1.999899 4
7.1772256 6.9294195 1.9306829 7
10.528215 7.047328 1.1053528 3
7.211596 6.9456735 1.22335 6
10.540944 7.0531821 0.22077292 8
7.2453589 6.9660721 0.52492964 4
9.1014471 6.0879502 -0.57393849 29
7.2860045 7.0027385 -0.17579079 4
5.9124584 3.9525466 -0.8676942 23
6.2229309 5.9821506 -0.75065476 27
4.4976258 3.006057 -1.0428039 23
3.9758708 3.8237305 -0.86916876 19
3.7646551 2.5136514 -1.2027252 26
3.296375 3.1768503 -1.0472491 23
11.675289 6.6589065 2.8470898 7
8.333148 6.9822035 2.69788 3
11.709137 6.6889911 1.8903184 21
8.333437 6.9725714 1.9078054 7
12.50327 7.1480923 1.0021601 8
15.724532 13.140427 2.1501505 1
11.653286 6.6651669 0 17
15.658327 13.075818 0.71116441 1
10.360406 5.9166455 -0.8297714 1
8.1597986 6.8103242 -0.37178504 30
6.0880241 3.47312 -0.97769308 26
5.5649357 4.6437411 -0.7555759 21
4.7226734 2.6876857 -1.1486156 20
4.2047515 3.5080552 -0.95940697 23
3.9939916 2.2645836 -1.3057264 19
3.5297327 2.9465189 -1.1368419 25
10.539131 7.0519915 2.9148881 7
7.1445084 6.9194531 2.652024 4
10.545844 7.0591321 1.999899 4
7.1784353 6.9281669 1.9306829 7
20.564663 13.763609 2.1618984 1
7.2128081 6.9444151 1.22335 6
20.55512 13.752028 0.43107441 1
7.2465739 6.964807 0.52492964 4
9.1014471 6.0879502 -0.57393849 29
7.2800193 6.9945354 -0.17561626 4
5.9124584 3.9525466 -0.8676942 23
6.2239747 5.9810648 -0.75065476 27
4.4981499 3.0052722 -1.0428039 23
3.9765382 3.8230364 -0.86916876 19
3.7650936 2.5129941 -1.2027252 26
3.296375 3.1768503 -1.0472491 23
11.698462 6.6181111 2.8470898 6
8.3817101 6.973248 2.7057316 7
11.65486 6.6041636 1.8777928 8
8.4088488 6.9859304 1.9195151 5
11.716656 6.644537 0.93710047 26
8.3890305 6.9595795 1.1419735 2
12.526833 7.106535 0 6
8.4285536 6.9874225 0.3811025 9
8.1324606 4.6077666 -0.6495527 7
8.2104502 6.8041248 -0.37301266 22
6.2057276 3.5115299 -0.99469948 25
5.8012381 4.8067808 -0.78552806 19
4.5317721 2.5583465 -1.0997162 22
4.1904359 3.4713578 -0.95332921 22
4.0626512 2.2847359 -1.325698 22
3.5381291 2.932631 -1.1362375 21
10.628628 7.0582771 2.932857 7
7.1929765 6.9179206 2.6610708 6
10.630075 7.0618958 2.0112154 4
7.2362251 6.9353476 1.9397383 7
10.623289 7.0573816 1.1127609 4
7.2656884 6.9466448 1.228218 6
10.64255 7.0674987 0.22238727 8
7.2943106 6.9618888 0.52663052 4
9.1392841 6.0671873 -0.57498872 35
7.3369303 7.000155 -0.17640163 5
5.9386277 3.9401126 -0.86951971 25
6.2772303 5.9902687 -0.75456899 28
4.3960915 2.9149911 -1.0166148 18
3.9274008 3.7494044 -0.85546571 21
3.8624482 2.5584829 -1.2311766 17
3.2582119 3.1181121 -1.0315262 21
11.698462 6.6181111 2.8470898 6
8.3817101 6.973248 2.7057316 7
11.65486 6.6041636 1.8777928 8
8.3993816 6.9780622 1.9173467 5
11.716656 6.644537 0.93710047 26
15.561762 12.912383 2.1216664 1
12.526833 7.106535 0 6
8.4208603 6.9810424 0.38075349 9
10.562263 5.9854779 -0.84438366 10
8.2104502 6.8041248 -0.37301266 22
6.2057276 3.5115299 -0.99469948 25
5.8012342 4.8067856 -0.78552806 19
4.5317721 2.5583465 -1.0997162 22
4.1898303 3.4720891 -0.95332921 22
4.0626512 2.2847359 -1.325698 22
3.5376172 2.9332485 -1.1362375 21
10.628628 7.0582771 2.932857 7
7.1917691 6.9191761 2.6610708 6
10.630075 7.0618958 2.0112154 4
7.2350144 6.9366107 1.9397383 7
20.554493 13.653161 2.1557972 6
7.2644763 6.9479122 1.228218 6
10.64255 7.0674987 0.22238727 8
7.2930956 6.9631619 0.52663052 4
9.1392841 6.0671873 -0.57498872 35
21.124695 20.173878 -0.5092653 1
5.9386277 3.9401126 -0.86951971 25
6.2761855 5.991364 -0.75456899 28
4.3955827 2.9157584 -1.0166148 18
3.9267464 3.7500899 -0.85546571 21
3.8620019 2.5591569 -1.2311766 17
3.2582119 3.1181121 -1.0315262 21
12.816613 7.1942277 3.114037 7
8.4440527 6.9778748 2.7184148 4
12.747224 7.1669679 2.0503676 5
8.4661465 6.9862204 1.9273216 3
12.632068 7.1080484 1.0085964 6
8.458107 6.9696774 1.1482451 4
8.4902458 6.9912047 0.38284743 5
10.190689 5.7305264 -0.81307155 23
8.1172457 6.6815677 -0.36775154 21
6.2130194 3.4885097 -0.99400532 24
5.6194444 4.6247258 -0.75870132 27
4.7024398 2.6339977 -1.1392519 20
4.0891032 2.2817733 -1.3318961 21
3.5735307 2.9431033 -1.1446989 26
10.710963 7.0618725 2.9491413 5
7.2530665 6.9320159 2.675287 8
10.71322 7.0660276 2.022532 5
7.2792935 6.9329004 1.9454573 5
10.694455 7.053647 1.1177725 14
7.316247 6.9511437 1.2330858 7
10.726453 7.0720606 0.22365257 8
7.3414946 6.9630022 0.52846229 5
9.2906914 6.123383 -0.58325917 14
7.3860826 7.0028796 -0.17705609 6
5.8252344 3.8371613 -0.85096097 24
6.2562809 5.9327955 -0.74978495 23
4.4646802 2.9402936 -1.0304235 15
4.0304441 3.8237936 -0.87543303 18
3.8502874 2.5330703 -1.2247103 22
3.2861731 3.1240938 -1.0371416 21
12.816613 7.1942277 3.114037 7
8.4440527 6.9778748 2.7184148 4
12.747224 7.1669679 2.0503676 5
8.4661465 6.9862204 1.9273216 3
12.632068 7.1080484 1.0085964 6
15.560051 12.828632 2.1159174 1
15.625477 12.868855 0.70566779 1
10.190689 5.7305264 -0.81307155 23
8.1172457 6.6815677 -0.36775154 21
6.21241 3.4895942 -0.99400532 24
5.6194444 4.6247258 -0.75870132 27
4.7019806 2.6348183 -1.1392519 20
4.0887046 2.2824872 -1.3318961 21
3.5735307 2.9431033 -1.1446989 26
10.709731 7.0637417 2.9491413 5
7.2408509 6.92033 2.6707637 8
22.782961 15.030265 4.3076849 1
7.2792935 6.9329004 1.9454573 5
10.693224 7.0555143 1.1177725 14
7.316247 6.9511437 1.2330858 7
10.72522 7.0739326 0.22365257 8
7.3414946 6.9630022 0.52846229 5
9.2896214 6.1250043 -0.58325917 14
20.112949 19.086893 -0.48339194 1
5.8245654 3.8381782 -0.85096097 24
6.2552457 5.9338875 -0.74978495 23
4.4646802 2.9402936 -1.0304235 15
4.0297761 3.8244972 -0.87543303 18
3.8498454 2.5337424 -1.2247103 22
3.2856278 3.1246674 -1.0371416 21
12.920716 7.1934361 3.1332529 6
8.5021114 6.9760613 2.729286 3
12.899754 7.1935315 2.0708957 5
8.5514135 7.0065699 1.9411997 4
12.848472 7.1708126 1.0239044 6
8.5234938 6.976244 1.1539942 9
12.743017 7.1148992 0 3
8.6422424 7.0659256 0.38860586 13
10.175776 5.6754947 -0.81028825 24
8.272048 6.7607322 -0.37371412 30
6.0579648 3.3752036 -0.96728098 23
5.7760706 4.7199717 -0.77771443 26
4.7581906 2.6444864 -1.1506964 24
4.1492367 2.2972558 -1.349113 23
3.5368524 2.8921998 -1.1295894 25
10.811784 7.077004 2.9704792 4
7.2999821 6.9282794 2.6836879 6
10.815102 7.0818567 2.0373604 5
7.3390942 6.9411922 1.9549893 3
10.7928 7.0672507 1.1256164 5
7.3693318 6.9528217 1.2379537 9
10.827235 7.0870934 0.22526692 6
7.3839211 6.9544578 0.52977067 6
9.317214 6.0966406 -0.58365297 13
7.4438262 7.0109205 -0.17788509 3
5.9791684 3.9101431 -0.87164938 22
6.1653919 5.8077865 -0.73652017 27
4.4482045 2.9072442 -1.0242335 20
4.0036011 3.773118 -0.86681962 19
3.8687785 2.5268879 -1.2279435 23
3.1832707 3.0060143 -1.0012038 18
12.920716 7.1934361 3.1332529 6
8.5021114 6.9760613 2.729286 3
12.899754 7.1935315 2.0708957 5
8.5228519 6.9831591 1.9346944 4
12.848472 7.1708126 1.0239044 6
8.5247116 6.9747558 1.1539942 9
17.432436 9.7314339 0 1
8.6422424 7.0659256 0.38860586 13
10.175776 5.6754947 -0.81028825 24
8.272048 6.7607322 -0.37371412 30
6.0585537 3.3741462 -0.96728098 23
5.7760706 4.7199717 -0.77771443 26
4.7586522 2.6436558 -1.1506964 24
4.1496372 2.2965317 -1.349113 23
3.5368524 2.8921998 -1.1295894 25
10.813019 7.0751171 2.9704792 4
7.2999821 6.9282794 2.6836879 6
10.822535 7.0840254 2.0385311 5
7.3390942 6.9411922 1.9549893 3
10.794033 7.0653667 1.1256164 5
7.3639202 6.9477115 1.2370409 9
10.828472 7.0852036 0.22526692 6
22.638243 21.334433 1.6284332 1
9.3182764 6.0950136 -0.58365297 13
20.240978 19.067907 -0.48478815 1
5.9798498 3.9090993 -0.87164938 22
6.1664052 5.8067102 -0.73652017 27
4.4482045 2.9072442 -1.0242335 20
4.0042596 3.7724195 -0.86681962 19
3.8692193 2.5262127 -1.2279435 23
3.1837955 3.0054591 -1.0012038 18
13.049779 7.202724 3.1581819 4
8.5821648 6.9892898 2.7468007 8
13.014877 7.1952887 2.0851607 5
8.603776 6.9969335 1.9472713 7
12.948874 7.1647038 1.029819 3
8.6621447 7.0343914 1.1691508 16
12.906829 7.1443834 0 3
8.637044 7.009007 0.38720989 6
10.222704 5.6526332 -0.81237578 25
8.2928915 6.7272196 -0.37353876 9
6.1641083 3.4033189 -0.98220497 24
4.7425961 2.6120608 -1.144454 19
4.4304843 3.594059 -0.99978012 27
4.1411629 2.272074 -1.3436036 21
3.6076796 2.928164 -1.1489296 18
10.896098 7.0725684 2.986202 5
7.3587089 6.9329581 2.6959655 4
10.916778 7.0886817 2.0514085 5
7.3984652 6.9461775 1.9640445 3
10.920125 7.090848 1.1360751 4
7.4074383 6.937645 1.2400833 4
10.915175 7.0849266 0.22653222 3
7.4367051 6.9529357 0.53173327 6
9.3740664 6.0825577 -0.58575338 17
7.5053711 7.0147362 -0.17871408 3
5.9733152 3.8736596 -0.86860693 22
6.3804064 5.9644523 -0.75957042 28
4.6647992 3.0243728 -1.0718501 18
4.1297832 3.8623769 -0.89109379 20
3.8825071 2.5146384 -1.2292368 20
3.3155479 3.1071694 -1.0393877 22
20.876324 11.519647 5.0564151 1
8.5821648 6.9892898 2.7468007 8
13.014877 7.1952887 2.0851607 5
8.5846777 6.9813962 1.9429345 7
12.948874 7.1647038 1.029819 3
8.6621447 7.0343914 1.1691508 16
17.535803 9.7049885 0 1
8.6195869 6.9948349 0.38642466 6
10.222704 5.6526332 -0.81237578 25
8.2928915 6.7272196 -0.37353876 9
6.1641083 3.4033189 -0.98220497 24
4.7425961 2.6120608 -1.144454 19
4.4304843 3.594059 -0.99978012 27
4.1411629 2.272074 -1.3436036 21
3.6076796 2.928164 -1.1489296 18
10.896098 7.0725684 2.986202 5
7.3534379 6.9279876 2.6940272 4
10.916778 7.0886817 2.0514085 5
7.3984652 6.9461775 1.9640445 3
16.180063 10.505386 1.6847205 1
7.4327831 6.9614038 1.2443427 4
10.915175 7.0849266 0.22653222 3
7.4367051 6.9529357 0.53173327 6
9.3740664 6.0825577 -0.58575338 17
20.469542 19.142153 -0.48858404 1
5.9733152 3.8736596 -0.86860693 22
6.3804064 5.9644523 -0.75957042 28
4.6647992 3.0243728 -1.0718501 18
4.1297832 3.8623769 -0.89109379 20
3.8825071 2.5146384 -1.2292368 20
3.3155479 3.1071694 -1.0393877 22
13.160658 7.2040725 3.178956 4
8.6366882 6.9837008 2.756464 5
13.081165 7.1724176 2.0917716 10
8.6951838 7.0210075 1.9624506 8
13.087512 7.1818171 1.0388646 8
8.6614885 6.9838209 1.1657537 3
13.010593 7.1425757 0 3
8.6439514 6.9647045 0.38642466 5
10.332046 5.66605 -0.81950802 24
8.3027048 6.6872578 -0.37292495 30
6.1281605 3.3556499 -0.9745695 25
5.7128925 4.6005182 -0.76469171 20
4.8096514 2.6270943 -1.1584995 21
4.4545045 3.5878427 -1.0023849 26
4.1258359 2.2449906 -1.3360281 17
3.5876682 2.8911853 -1.1392595 22
10.98831 7.0780168 3.0047324 6
7.4075451 6.9303403 2.7050128 12
10.995428 7.0853019 2.0615544 4
7.4424033 6.9387279 1.969287 4
11.003432 7.0904508 1.142176 3
7.4715686 6.9489422 1.2467766 3
11.065935 7.1279821 0.22915009 8
7.4938498 6.9575253 0.53408843 8
6.7607141 4.3539133 -0.42100203 1
7.5536194 7.0106111 -0.17928129 4
6.0222788 3.8756056 -0.87377906 23
6.3665233 5.9099321 -0.75543875 27
4.1721663 3.8748457 -0.89735806 21
3.9359641 2.5297804 -1.2434626 23
3.2764871 3.0490568 -1.0236648 17
20.742626 11.35164 5.0143471 1
8.6366882 6.9837008 2.756464 5
13.081165 7.1724176 2.0917716 10
8.6951838 7.0210075 1.9624506 8
13.087512 7.1818171 1.0388646 8
15.248984 12.297363 2.0552909 1
13.010593 7.1425757 0 3
15.386166 12.39916 0.68882877 1
10.332046 5.66605 -0.81950802 24
8.3027048 6.6872578 -0.37292495 30
6.1281605 3.3556499 -0.9745695 25
5.7128925 4.6005182 -0.76469171 20
4.8096514 2.6270943 -1.1584995 21
4.4545045 3.5878427 -1.0023849 26
4.1258359 2.2449906 -1.3360281 17
3.5876682 2.8911853 -1.1392595 22
10.98831 7.0780168 3.0047324 6
7.3969684 6.9204359 2.7011354 12
10.995428 7.0853019 2.0615544 4
7.4531689 6.9487739 1.9721465 4
16.122419 10.388149 1.6749154 2
7.4770174 6.9540148 1.2476892 3
11.065935 7.1279821 0.22915009 8
7.4938498 6.9575253 0.53408843 8
9.5505829 6.1497955 -0.59546781 6
20.563707 19.096102 -0.48923853 1
6.0222788 3.8756056 -0.87377906 23
6.3665233 5.9099321 -0.75543875 27
4.1721663 3.8748457 -0.89735806 21
3.9359641 2.5297804 -1.2434626 23
3.2764871 3.0490568 -1.0236648 17
13.29624 7.2210484 3.2059624 5
8.7146444 6.9990864 2.7739789 9
13.224504 7.1940327 2.1109078 7
8.7088156 6.9844308 1.9602822 5
11.492346 6.2575502 0.91031128 9
8.7156467 6.9799323 1.1699349 9
11.387364 6.2029939 0 29
8.7255125 6.9828463 0.38904214 3
10.396791 5.6567702 -0.82316107 27
8.262413 6.6097326 -0.37011904 19
6.3024683 3.4238539 -1.0005996 24
5.7397652 4.5908704 -0.76625448 24
4.824789 2.6146207 -1.1600602 21
4.4759874 3.5807445 -1.0045555 22
4.0740147 2.199384 -1.3167452 16
3.549906 2.8413534 -1.1241499 22
11.087665 7.0900888 3.0255089 6
7.4623146 6.9353452 2.7166445 4
11.102077 7.1020174 2.0771635 4
7.4995689 6.9457092 1.9783423 4
11.131791 7.1210136 1.1530704 8
7.5200777 6.9477134 1.2510359 3
11.156905 7.1343317 0.23054628 8
7.5462317 6.9597306 0.53618187 8
11.283332 7.212379 -0.70232642 7
7.6098909 7.016036 -0.18006666 6
6.1229372 3.9117031 -0.88655716 23
6.4135375 5.9141273 -0.75870061 26
4.799057 3.065176 -1.0980392 17
4.2267017 3.8995311 -0.90636295 24
3.9321139 2.508925 -1.2395829 21
3.1954343 2.9537435 -0.99502695 17
20.653345 11.213969 4.9837055 1
8.7146444 6.9990864 2.7739789 9
20.615301 11.211921 3.2931833 1
8.7088156 6.9844308 1.9602822 5
11.492346 6.2575502 0.91031128 9
15.351565 12.300707 2.0639143 1
11.387364 6.2029939 0 29
15.208751 12.173186 0.67905694 1
10.396791 5.6567702 -0.82316107 27
8.262413 6.6097326 -0.37011904 19
6.3018703 3.4249537 -1.0005996 24
5.7397652 4.5908704 -0.76625448 24
4.8243332 2.6154628 -1.1600602 21
4.4759874 3.5807445 -1.0045555 22
4.0736303 2.2000949 -1.3167452 16
3.549906 2.8413534 -1.1241499 22
11.086427 7.0920243 3.0255089 6
7.4623146 6.9353452 2.7166445 4
11.100837 7.1039543 2.0771635 4
7.4995689 6.9457092 1.9783423 4
11.130548 7.1229563 1.1530704 8
7.4945707 6.9241271 1.2467766 3
11.180929 7.1524391 0.23106985 8
7.5462317 6.9597306 0.53618187 8
11.282073 7.2143488 -0.70232642 7
7.6086707 7.0173593 -0.18006666 6
6.1222539 3.9127717 -0.88655716 23
6.4125047 5.915246 -0.75870061 26
4.799057 3.065176 -1.0980392 17
4.2260213 3.9002686 -0.90636295 24
3.9316757 2.5096111 -1.2395829 21
3.1949189 2.9543011 -0.99502695 17
13.403193 7.2186332 3.2256975 5
8.7674685 6.9913168 2.7830381 5
13.375928 7.2159667 2.131088 5
8.78899 6.9984751 1.972859 4
11.384624 6.1475248 0.90004784 19
8.7815456 6.9850492 1.1756839 3
11.402347 6.1596437 0 9
8.7928629 6.986547 0.39096159 4
8.5066156 4.5908012 -0.67181909 3
8.3049955 6.5963941 -0.37099588 21
6.2876263 3.3888547 -0.99643481 25
5.722661 4.5445108 -0.76182675 22
4.7623301 2.5604498 -1.1428933 20
4.4595499 3.542119 -0.99804366 20
4.138515 2.2164452 -1.3353394 19
3.620554 2.8772686 -1.1434901 23
11.181049 7.0976629 3.0446007 6
7.5130868 6.933835 2.7263374 4
11.20687 7.1167793 2.0923822 4
7.5526586 6.9460826 1.9859678 4
11.235241 7.1347842 1.1613503 8
7.5881491 6.9617014 1.2583377 4
11.226933 7.12676 0.23150615 3
7.6054468 6.9653993 0.5386678 5
6.8421445 4.3424129 -0.42428392 9
7.6626015 7.0177822 -0.18076476 9
5.9849758 3.7957242 -0.86465186 25
6.4496336 5.9079747 -0.76065767 29
4.6189814 2.927588 -1.0542319 19
4.1668501 3.8187044 -0.89070225 20
3.9302094 2.4894145 -1.2363497 26
3.3486238 3.0750973 -1.0399492 24
20.62561 11.10588 4.9676061 2
8.7674685 6.9913168 2.7830381 5
20.52574 11.070575 3.2726552 1
8.7812872 6.9923396 1.9711244 4
11.384624 6.1475248 0.90004784 19
15.056031 11.973499 2.0181832 1
11.402347 6.1596437 0 9
15.149444 12.03918 0.67451996 2
10.447206 5.637013 -0.82559645 21
8.3049955 6.5963941 -0.37099588 21
6.2882175 3.3877573 -0.99643481 25
5.722661 4.5445108 -0.76182675 22
4.7627773 2.5596187 -1.1428933 20
4.4595499 3.542119 -0.99804366 20
4.1389017 2.215723 -1.3353394 19
3.620554 2.8772686 -1.1434901 23
11.182288 7.0957112 3.0446007 6
7.5077648 6.9289193 2.7243989 4
11.208112 7.1148238 2.0923822 4
7.5436301 6.9377718 1.9835849 4
11.236486 7.1328235 1.1613503 8
7.5881491 6.9617014 1.2583377 4
16.22217 10.292863 0.33473715 1
7.6054468 6.9653993 0.5386678 5
11.542469 7.3213544 -0.71689808 1
17.038719 15.60696 -0.4027175 4
5.9856377 3.7946796 -0.86465186 25
6.450665 5.9068494 -0.76065767 29
4.6189814 2.927588 -1.0542319 19
4.1675172 3.8179772 -0.89070225 20
3.9306438 2.4887283 -1.2363497 26
3.3491604 3.0745127 -1.0399492 24
13.550385 7.2339206 3.2547815 5
8.8405838 6.9967818 2.7981372 3
13.491808 7.2147336 2.1453531 5
8.8551416 6.9982815 1.9819667 3
11.431271 6.1186953 0.90196139 9
8.8492832 6.983633 1.1811717 4
11.53947 6.1791425 0 7
8.8478346 6.9774852 0.39227033 6
10.353421 5.5375614 -0.81655067 30
8.3565826 6.5875707 -0.3722235 12
6.4425898 3.4404109 -1.0189942 22
5.6006632 4.4141898 -0.74333453 22
4.821785 2.5685487 -1.154858 22
4.3468614 3.4266319 -0.9698258 24
4.0981441 2.1746731 -1.3195 23
3.6558275 2.8835201 -1.151347 23
11.288633 7.105279 3.0665004 4
7.5687108 6.9339995 2.737323 4
11.311436 7.1223688 2.1068203 6
7.6052418 6.9431849 1.9931167 5
11.329999 7.134047 1.1683227 4
7.6264515 6.9455442 1.2604674 4
11.40654 7.1794491 0.23464759 7
7.6586237 6.9626808 0.5406304 3
6.8989201 4.3413653 -0.42677817 3
7.720922 7.0169063 -0.18150648 6
5.9953041 3.7700748 -0.86404335 18
6.3562207 5.7775688 -0.74695802 28
4.6213684 2.9054163 -1.0523273 16
4.1814823 3.8026772 -0.89070225 20
3.9417844 2.4755886 -1.2369963 22
3.3370197 3.0408616 -1.0326493 21
20.517302 10.950783 4.9317703 2
8.8405838 6.9967818 2.7981372 3
20.544344 10.983602 3.2691758 1
8.8705931 7.0104971 1.9854361 3
11.431271 6.1186953 0.90196139 9
15.037369 11.868936 2.0098209 1
11.53947 6.1791425 0 7
15.10716 11.915484 0.670681 1
10.354386 5.5357547 -0.81655067 30
8.3565826 6.5875707 -0.3722235 12
6.4425898 3.4404109 -1.0189942 22
5.6006665 4.414185 -0.74333453 22
4.821785 2.5685487 -1.154858 22
4.3474593 3.4258733 -0.9698258 24
4.0981441 2.1746731 -1.3195 23
3.6563306 2.8828821 -1.151347 23
11.288633 7.105279 3.0665004 4
7.569921 6.9326787 2.737323 4
11.303077 7.1171069 2.1052594 6
7.6064529 6.9418578 1.9931167 5
11.329999 7.134047 1.1683227 4
22.759546 20.732494 3.7704496 1
16.350756 10.290581 0.3366133 5
17.05839 15.510371 1.2064745 8
11.218423 7.0583448 -0.69510621 22
16.935772 15.393438 -0.39887795 1
5.9953041 3.7700748 -0.86404335 18
6.3572297 5.7764597 -0.74695802 28
4.6218758 2.9046097 -1.0523273 16
4.1821461 3.8019471 -0.89070225 20
3.9422164 2.4749007 -1.2369963 22
3.3370197 3.0408616 -1.0326493 21
13.681474 7.2426114 3.2802298 5
8.8973761 6.9913673 2.8084044 7
13.637223 7.2313504 2.1644895 5
8.9143763 6.9946923 1.9897729 8
11.613396 6.1640577 0.91466016 8
8.9049158 6.977241 1.1853528 6
11.728806 6.2278781 0 7
8.9449139 7.0035615 0.39549851 3
10.521305 5.5777907 -0.82820582 20
8.5408373 6.6846619 -0.37941366 21
6.3692031 3.3727646 -1.0054586 23
5.5064096 4.3087697 -0.72874916 27
4.7723193 2.52091 -1.1408125 19
4.5416107 3.5533502 -1.0106331 20
4.1461391 2.1815805 -1.3325849 19
3.6510952 2.8581324 -1.146512 23
11.367092 7.0993767 3.0811 4
7.6387229 6.9468536 2.7534781 7
11.426287 7.1390939 2.1236 3
7.6560864 6.9383473 1.999789 7
11.464671 7.1630626 1.1796529 8
7.6868162 6.9491782 1.266248 5
11.50998 7.1885719 0.23626193 3
7.7192922 6.9663591 0.54311633 3
11.1964 6.9900618 -0.69221818 22
7.7669959 7.0069876 -0.18198644 4
6.0421157 3.7701337 -0.86891121 21
6.4180145 5.7909603 -0.75174201 28
4.4882665 2.7988968 -1.0194718 18
4.1789088 3.7724211 -0.8871786 20
4.0205383 2.5045135 -1.2589816 18
3.4179966 3.0930142 -1.0545489 19
20.577015 10.890532 4.936964 4
8.8973761 6.9913673 2.8084044 7
20.648182 10.946597 3.2796137 8
23.019457 18.066422 5.1483426 1
11.613396 6.1640577 0.91466016 8
18.943441 14.845624 2.5259302 1
11.728806 6.2278781 0 7
14.863454 11.639288 0.65802997 4
10.520332 5.5796275 -0.82820582 20
8.5408373 6.6846619 -0.37941366 21
6.3692031 3.3727646 -1.0054586 23
5.5064063 4.3087749 -0.72874916 27
4.7723193 2.52091 -1.1408125 19
4.5409908 3.554143 -1.0106331 20
4.1461391 2.1815805 -1.3325849 19
3.6505966 2.8587694 -1.146512 23
11.367092 7.0993767 3.0811 4
7.6196532 6.9319267 2.747016 7
22.407024 13.997958 4.1695457 1
22.758057 20.644026 5.9602866 1
16.445433 10.274181 1.6934361 4
22.949593 20.766811 3.7905295 1
16.384457 10.232118 0.33656964 2
16.983768 15.339902 1.1975775 1
11.1964 6.9900618 -0.69221818 22
16.756712 15.129433 -0.39346769 1
6.0421157 3.7701337 -0.86891121 21
6.4170046 5.7920809 -0.75174201 28
4.4877777 2.79968 -1.0194718 18
4.1782494 3.7731504 -0.8871786 20
4.0201011 2.5052152 -1.2589816 18
3.4179966 3.0930142 -1.0545489 19
13.766047 7.2290201 3.2947717 7
8.9472818 6.9827251 2.81686 4
13.766312 7.2413807 2.1811903 6
8.9841251 7.0014234 2.0001817 3
11.799306 6.2126036 0.92770684 7
8.9868612 6.9934916 1.1931924 3
11.93965 6.2890897 0 7
8.9878101 6.9892011 0.39637104 5
10.507872 5.5284638 -0.82577038 21
8.4801197 6.5918856 -0.37573087 17
6.301424 3.3102217 -0.99296409 27
5.4303761 4.2202797 -0.71676826 20
4.9301629 2.5832658 -1.1767067 22
4.5410924 3.5299945 -1.0080284 25
4.2236919 2.204452 -1.355311 22
3.5988021 2.7989626 -1.1271718 29
11.498247 7.1283779 3.1102996 5
7.6784201 6.9390221 2.7599399 6
11.529648 7.1506114 2.1384284 5
7.7088361 6.942194 2.0078909 6
11.581493 7.1827497 1.1892401 4
7.7436686 6.9565172 1.2720284 6
11.614491 7.2004027 0.23791991 3
7.7671509 6.9654207 0.5449481 3
11.225884 6.9568386 -0.69261199 26
7.8392043 7.0276241 -0.18316448 4
6.0208273 3.7291789 -0.86404335 22
6.5028996 5.830658 -0.75957042 29
4.293592 3.8516889 -0.90910351 22
3.9831944 2.463937 -1.2447559 22
3.4300449 3.083293 -1.0551103 19
20.552387 10.790419 4.9224219 1
8.9472818 6.9827251 2.81686 4
20.511255 10.787063 3.2521272 1
22.943317 17.884022 5.1179843 1
11.799306 6.2126036 0.92770684 7
14.843142 11.552484 1.973236 1
11.93965 6.2890897 0 7
14.761955 11.481014 0.65183532 4
10.485797 5.5168595 -0.82403082 21
8.4801197 6.5918856 -0.37573087 17
6.301424 3.3102217 -0.99296409 27
5.4303761 4.2202797 -0.71676826 20
4.9301629 2.5832658 -1.1767067 22
4.5410924 3.5299945 -1.0080284 25
4.2236919 2.204452 -1.355311 22
3.5988021 2.7989626 -1.1271718 29
23.986431 14.868364 6.4968705 1
22.879087 20.688347 8.2442789 1
23.94339 14.84746 4.4466047 3
22.959465 20.688391 5.9950781 1
23.012796 20.685616 3.7896166 23
16.815306 15.086719 1.1821383 1
11.225884 6.9568386 -0.69261199 26
16.598415 14.886817 -0.38858095 1
6.0208273 3.7291789 -0.86404335 22
6.5028996 5.830658 -0.75957042 29
4.293592 3.8516889 -0.90910351 22
3.9831944 2.463937 -1.2447559 22
3.4300449 3.083293 -1.0551103 19
13.899664 7.2373638 3.3207393 6
9.0367937 7.0019817 2.8373945 4
13.89688 7.248209 2.197891 6
9.037715 6.9926257 2.0066872 7
12.004445 6.2671199 0.94214523 7
9.0485954 6.9909673 1.1981574 6
13.801073 7.2074299 0 3
9.0516987 6.9883294 0.39811596 5
8.7711353 4.5764818 -0.68764913 8
8.4951687 6.5561371 -0.37538013 9
6.2272797 3.2436509 -0.97942841 22
5.706831 4.403388 -0.75140858 18
4.9717112 2.5829258 -1.1845098 22
4.4423203 3.4283421 -0.98328358 22
4.2697978 2.2095425 -1.367707 23
3.7064393 2.8620408 -1.1579952 21
11.59984 7.1354151 3.1310761 5
7.7403255 6.9460664 2.7735102 3
11.644977 7.1659598 2.1552081 7
7.7622819 6.941431 2.0155168 3
11.676497 7.1853442 1.1964304 16
7.7864141 6.945972 1.2750709 8
11.688527 7.1899328 0.23892343 6
7.8286929 6.9714885 0.54756492 3
11.275623 6.9332995 -0.69418728 20
7.874886 7.0101943 -0.18342628 4
6.0464935 3.7159319 -0.86586881 24
6.558538 5.8394074 -0.76370203 28
4.7681627 2.9295878 -1.0789925 18
4.225945 3.764349 -0.89187676 27
3.9650085 2.4336057 -1.2363497 18
3.3899453 3.0258272 -1.0393877 20
20.208122 10.51994 4.8310161 1
9.0367937 7.0019817 2.8373945 4
13.89688 7.248209 2.197891 6
9.037715 6.9926257 2.0066872 7
12.004445 6.2671199 0.94214523 7
14.834198 11.46259 1.9667029 1
18.074131 9.4375343 0 1
14.618043 11.287388 0.64372116 9
10.681912 5.5724421 -0.83794731 1
8.4951687 6.5561371 -0.37538013 9
6.2272797 3.2436509 -0.97942841 22
5.706831 4.403388 -0.75140858 18
4.9717112 2.5829258 -1.1845098 22
4.4423203 3.4283421 -0.98328358 22
4.2697978 2.2095425 -1.367707 23
3.7064393 2.8620408 -1.1579952 21
24.025736 14.776889 6.4935012 2
22.990692 20.643862 8.2584953 18
23.974041 14.750853 4.4427023 1
23.035198 20.611395 5.9960308 1
11.676497 7.1853442 1.1964304 16
22.942337 20.477907 3.7661903 1
11.688527 7.1899328 0.23892343 6
16.692675 14.871785 1.1698394 1
11.275623 6.9332995 -0.69418728 20
16.500973 14.69576 -0.38509044 1
6.0464935 3.7159319 -0.86586881 24
6.558538 5.8394074 -0.76370203 28
4.7681627 2.9295878 -1.0789925 18
4.225945 3.764349 -0.89187676 27
3.9650085 2.4336057 -1.2363497 18
3.3899453 3.0258272 -1.0393877 20
14.104323 7.2782807 3.3633263 6
9.0970068 6.9954386 2.8482656 4
14.039927 7.2574458 2.2163312 5
9.102334 6.98945 2.0153608 3
14.052174 7.2699676 1.101141 6
9.1155853 6.9895334 1.2036452 4
13.929542 7.2096319 0 6
9.134758 6.9991841 0.40064618 3
8.5596266 4.4264069 -0.66973162 18
8.4933586 6.5052028 -0.37424025 13
6.2699342 3.236686 -0.98428738 19
5.8985868 4.5170317 -0.774589 24
5.0659652 2.608278 -1.2047979 22
4.5857763 3.5123866 -1.0123696 21
4.3206563 2.2157741 -1.3814806 20
3.6533854 2.7997146 -1.1380507 23
11.711186 7.1448607 3.1540985 16
7.7891665 6.9385438 2.7819109 3
11.742832 7.1669607 2.1684759 10
7.8188601 6.9406447 2.0236187 3
11.741021 7.1658478 1.2003525 4
7.8601031 6.9601784 1.2829812 3
11.471524 6.9986644 0.2339495 7
7.8766298 6.9625993 0.54913497 5
7.0547848 4.3031001 -0.43268558 5
7.9323568 7.0094357 -0.184168 6
6.5817623 5.8169804 -0.76391953 28
4.8417525 2.9503865 -1.0932775 18
4.2655916 3.7717538 -0.89735806 20
3.8212221 2.3261893 -1.1884993 21
3.410121 3.0214691 -1.0421953 18
14.104323 7.2782807 3.3633263 6
9.0970068 6.9954386 2.8482656 4
14.039927 7.2574458 2.2163312 5
9.102334 6.98945 2.0153608 3
14.052174 7.2699676 1.101141 6
14.64924 11.234122 1.9366511 6
18.06863 9.3505526 0 16
14.617674 11.201816 0.64188898 5
10.619024 5.4879045 -0.83133698 1
8.4933586 6.5052028 -0.37424025 13
6.2699342 3.236686 -0.98428738 19
5.8985901 4.5170269 -0.774589 24
5.0659652 2.608278 -1.2047979 22
4.5863891 3.5115864 -1.0123696 21
4.3206563 2.2157741 -1.3814806 20
3.6538739 2.799077 -1.1380507 23
11.711186 7.1448607 3.1540985 16
7.7903776 6.9371843 2.7819109 3
11.742832 7.1669607 2.1684759 10
7.8292446 6.9474277 2.0260017 3
11.741021 7.1658478 1.2003525 4
7.8631754 6.9604526 1.2832855 3
11.471524 6.9986644 0.2339495 7
16.67672 14.743076 1.1647366 1
11.377697 6.9387121 -0.69891322 8
16.570391 14.643884 -0.38539588 1
6.5827775 5.8158321 -0.76391953 28
4.842268 2.9495413 -1.0932775 18
4.2662501 3.7710094 -0.89735806 20
3.8216279 2.3255224 -1.1884993 21
3.410121 3.0214691 -1.0421953 18
14.261187 7.2994003 3.3950064 5
9.1856985 7.0153074 2.8688004 4
14.204927 7.2831006 2.2385991 5
9.1763563 6.9980559 2.0266368 7
14.153873 7.2631598 1.1072294 4
9.1980476 7.004467 1.2114849 4
14.053468 7.2147541 0 5
9.1877384 6.9915547 0.40195495 9
9.0877857 4.6591201 -0.70991546 20
8.4572248 6.433125 -0.37169737 13
6.57161 3.3646488 -1.0301005 24
5.9669604 4.538095 -0.78162128 23
5.1660862 2.6381061 -1.2266465 23
4.5725384 3.4769762 -1.006726 22
4.2958345 2.1851189 -1.3711505 19
3.7364738 2.842793 -1.1610172 19
11.788999 7.1387882 3.1686983 4
7.8549275 6.948133 2.7967737 5
11.819339 7.1599607 2.1782315 8
7.8743238 6.9409094 2.0317209 4
11.532519 6.986249 1.1766026 9
7.916018 6.9605684 1.2881533 3
11.421967 6.9165716 0.23246604 8
7.9365215 6.9663692 0.55162096 9
11.492489 6.9565229 -0.70455813 21
7.9849486 7.0064449 -0.18482248 9
6.6169949 5.8071208 -0.76565915 26
4.7280869 2.8585873 -1.0651836 21
4.3788543 3.8448944 -0.91849995 22
3.9719837 2.3989315 -1.2331166 21
3.2885718 2.8941267 -1.0017654 17
14.261187 7.2994003 3.3950064 5
9.1856985 7.0153074 2.8688004 4
14.204927 7.2831006 2.2385991 5
9.1763563 6.9980559 2.0266368 7
18.18606 9.3309784 1.4233073 1
14.668641 11.17599 1.9345605 3
14.053468 7.2147541 0 5
9.199666 7.0006347 0.4024784 9
9.0869732 4.6607065 -0.70991546 20
8.4572248 6.433125 -0.37169737 13
6.571023 3.3657959 -1.0301005 24
5.9669571 4.5381002 -0.78162128 23
5.1656256 2.6390076 -1.2266465 23
4.5719314 3.4777739 -1.006726 22
4.2954531 2.1858685 -1.3711505 19
3.7359776 2.8434453 -1.1610172 19
11.787753 7.1408453 3.1686983 4
7.839251 6.9366941 2.791604 5
11.81809 7.1620231 2.1782315 8
7.8786335 6.947156 2.0331507 4
11.5313 6.9882612 1.1766026 9
7.9297032 6.9750676 1.2905872 3
11.42076 6.9185648 0.23246604 8
16.627314 14.606561 1.1580638 1
11.491273 6.958529 -0.70455813 21
7.9825058 7.0092273 -0.18482248 9
6.6149678 5.8094296 -0.76565915 26
4.7275882 2.8594122 -1.0651836 21
4.377512 3.8464227 -0.91849995 22
3.9711459 2.4003181 -1.2331166 21
3.2880666 2.8947008 -1.0017654 17
14.426167 7.3203611 3.4282453 6
9.2120619 6.9846668 2.8694041 4
14.351661 7.2951393 2.2577355 6
9.2517586 7.004631 2.0379126 3
14.312528 7.2815266 1.1176667 6
9.2489843 6.9949284 1.2151434 4
14.227863 7.2415934 0 6
9.2559385 6.9925814 0.4038744 3
10.701881 5.4410763 -0.83499008 24
8.3839407 6.331274 -0.3674885 12
6.4899921 3.295809 -1.0155237 27
6.0541816 4.5711999 -0.79099756 21
5.1726246 2.6198571 -1.2261263 22
4.4877987 3.3890569 -0.98545414 18
4.2558308 2.1470881 -1.3559996 21
3.7807074 2.8567259 -1.171896 18
11.839752 7.1159654 3.1759982 3
7.8978739 6.9395905 2.8038819 7
11.902279 7.1563487 2.1891577 6
7.9397497 6.9519625 2.0426826 5
11.566296 6.9543829 1.1776919 15
7.9670792 6.958777 1.2927169 4
11.451268 6.8825192 0.23259693 6
7.9915566 6.9679179 0.55384523 5
11.474832 6.8939514 -0.70206386 20
8.0201073 6.9928246 -0.1851279 12
6.3503947 3.8130865 -0.90389884 21
6.6671019 5.8141479 -0.76935589 24
4.931181 2.9590139 -1.1089909 18
4.3983488 3.8376184 -0.92006606 23
4.0851479 2.4497454 -1.2660946 21
14.426167 7.3203611 3.4282453 6
9.2120619 6.9846668 2.8694041 4
14.351661 7.2951393 2.2577355 6
9.2517586 7.004631 2.0379126 3
14.312528 7.2815266 1.1176667 6
14.800724 11.191138 1.9465812 1
14.227863 7.2415934 0 6
14.787266 11.172858 0.64598966 1
10.701881 5.4410763 -0.83499008 24
8.3839407 6.331274 -0.3674885 12
6.4905677 3.2946763 -1.0155237 27
6.0541816 4.5711999 -0.79099756 21
5.1730814 2.6189542 -1.2261263 22
4.4877987 3.3890569 -0.98545414 18
4.2562056 2.1463451 -1.3559996 21
3.7807074 2.8567259 -1.171896 18
11.678102 7.0160618 3.132199 4
7.8978739 6.9395905 2.8038819 7
22.116373 13.29077 4.0719895 1
7.924983 6.9390216 2.0388699 5
11.56751 6.952364 1.1776919 15
16.435616 14.361984 2.671838 1
11.45247 6.8805203 0.23259693 6
16.412973 14.316978 1.1396154 1
11.476033 6.8919477 -0.70206386 20
8.0213242 6.9914298 -0.1851279 12
6.3510599 3.8119781 -0.90389884 21
6.6681161 5.8129845 -0.76935589 24
4.931181 2.9590139 -1.1089909 18
4.3990188 3.8368506 -0.92006606 23
4.0855751 2.4490323 -1.2660946 21
14.58182 7.332221 3.4588869 5
9.319005 7.0121322 2.8947706 3
14.519826 7.3137298 2.2800031 5
9.3226366 7.0046988 2.0478876 5
14.457162 7.2884927 1.1268864 5
9.319521 6.992198 1.2208924 4
14.365932 7.2456594 0 5
9.3314762 6.9960866 0.4060556 8
10.871003 5.4769459 -0.84664512 24
8.4410725 6.3259816 -0.36897913 10
6.1508303 3.0941744 -0.96033967 27
5.9793839 4.480371 -0.77901673 22
5.1957641 2.6065454 -1.2292476 23
4.5947318 3.4434917 -1.006292 21
4.2920041 2.1446714 -1.3649524 18
3.6805627 2.7598472 -1.1374463 21
11.626298 6.9270854 3.1114225 14
7.9578223 6.940773 2.8161597 6
11.592382 6.9096103 2.1271119 23
7.9892468 6.9437542 2.0488782 7
11.539427 6.8780484 1.1722448 32
8.0262671 6.9588037 1.2981932 6
11.557069 6.8858285 0.23421128 18
8.0491219 6.9663696 0.55606955 4
