# .PCD v0.7 - Point Cloud Data file format
VERSION 0.7
FIELDS x y z intensity
SIZE 4 4 4 4
TYPE F F F F
COUNT 1 1 1 1
WIDTH 1391
HEIGHT 1
VIEWPOINT 0 0 0 1 0 0 0
POINTS 1391
DATA ascii
7.7794895 -0.63110906 -1.507542 12
9.830864 0.95067185 -1.5605886 16
5.7200809 -0.46560174 -1.5273316 10
6.6439052 0.64914048 -1.5307244 14
41.054554 0.95828378 7.2274556 65
76.068657 1.7374887 7.9935527 25
24.326584 0.54151642 0.84849399 22
18.247229 -2.8434541 -1.2857107 5
32.064861 0.70882189 -1.1243867 9
10.581745 -1.6547325 -1.4965611 14
15.469197 0.34089902 -1.6171564 17
6.9934535 -1.1008973 -1.4987144 9
8.7729445 0.19396654 -1.5411288 10
5.2962499 -0.84211475 -1.526791 12
6.2047172 0.13873053 -1.5375469 13
39.81567 -3.3417614 9.2017469 35
40.81543 3.9469824 10.962861 26
35.248043 -2.952024 5.5841079 61
40.801163 3.8737895 7.9524503 28
40.7598 3.8196537 5.0150967 28
49.199402 -4.1297545 0.86118889 6
24.239771 2.2483709 1.2739879 36
21.944647 -1.8449652 -1.1561475 8
24.936321 2.3131046 -0.43653181 6
12.38068 -1.0445218 -1.5190735 16
16.017242 1.486949 -1.4014976 37
7.7699027 -0.65763819 -1.5061135 12
9.8316622 0.91611958 -1.560197 15
5.7232332 -0.48597571 -1.5286249 10
6.646131 0.62594503 -1.5307244 15
41.054554 0.95828378 7.2274556 65
76.068954 1.7242122 7.9935527 25
24.326584 0.54151642 0.84849399 22
18.247229 -2.8434541 -1.2857107 5
32.064861 0.70882189 -1.1243867 9
10.581456 -1.6565793 -1.4965611 14
15.469197 0.34089902 -1.6171564 17
6.9932613 -1.1021179 -1.4987144 9
8.7729445 0.19396654 -1.5411288 10
5.296103 -0.84303916 -1.526791 12
6.2047172 0.13873053 -1.5375469 13
39.815086 -3.3487105 9.2017469 35
40.81543 3.9469824 10.962861 26
42.039055 -3.5284762 6.6611271 1
40.801163 3.8737895 7.9524503 28
40.7598 3.8196537 5.0150967 28
49.198681 -4.138341 0.86118889 6
24.239771 2.2483709 1.2739879 36
21.944324 -1.8487953 -1.1561475 8
24.936726 2.3087585 -0.43653181 6
12.380498 -1.0466827 -1.5190735 16
16.017502 1.4841533 -1.4014976 37
7.7699027 -0.65763819 -1.5061135 12
9.8318224 0.91440368 -1.560197 15
5.7231483 -0.48697463 -1.5286249 10
6.6462398 0.62478501 -1.5307244 15
40.949337 0.81281543 7.2083735 51
90.447815 -14.402249 6.3859215 6
75.788635 1.4531825 7.963501 48
24.333323 0.45669171 0.84866846 10
18.192862 -2.9000547 -1.2825795 1
32.019676 0.59600389 -1.1227207 13
10.590277 -1.6958599 -1.4986435 14
15.410628 0.28578502 -1.6109054 24
6.9845438 -1.1257412 -1.497674 9
8.7858763 0.16357407 -1.5432993 14
5.2907557 -0.86113286 -1.5261022 12
6.1954622 0.1168849 -1.5351294 10
39.929344 -3.4987338 9.2309465 9
40.956398 3.8163757 10.99711 26
35.254204 -3.0827014 5.5868397 39
40.968399 3.7454367 7.9824753 30
40.90387 3.6891804 5.0312214 27
49.149075 -4.3069949 0.86057806 1
24.227581 2.1619661 1.2729412 30
21.910379 -1.9229809 -1.1547034 8
25.101484 2.2356977 -0.43928063 8
12.361938 -1.0885843 -1.5172479 16
16.067236 1.4322258 -1.4054118 34
7.7675595 -0.68475622 -1.5061135 12
9.8349552 0.88007861 -1.560197 15
5.7069812 -0.50566614 -1.5247451 12
6.6483803 0.60158145 -1.5307244 16
40.949337 0.81281543 7.2083735 51
90.447815 -14.402249 6.3859215 6
75.788635 1.4531825 7.963501 48
24.333323 0.45669171 0.84866846 10
18.192862 -2.9000547 -1.2825795 1
32.017181 0.59595728 -1.1226331 13
10.590277 -1.6958599 -1.4986435 14
15.410628 0.28578502 -1.6109054 24
6.9845438 -1.1257412 -1.497674 9
8.7858763 0.16357407 -1.5432993 14
5.2907557 -0.86113286 -1.5261022 12
6.1954622 0.1168849 -1.5351294 10
43.423954 -3.8050869 10.039546 2
40.956398 3.8163757 10.99711 26
42.070755 -3.6790724 6.6681504 1
40.968399 3.7454367 7.9824753 30
40.90387 3.6891804 5.0312214 27
49.149075 -4.3069949 0.86057806 1
24.227581 2.1619661 1.2729412 30
21.910379 -1.9229809 -1.1547034 8
25.101484 2.2356977 -0.43928063 8
12.361938 -1.0885843 -1.5172479 16
16.067236 1.4322258 -1.4054118 34
7.7675595 -0.68475622 -1.5061135 12
9.8349552 0.88007861 -1.560197 15
5.7069812 -0.50566614 -1.5247451 12
6.6483803 0.60158145 -1.5307244 16
40.956848 0.66995144 7.2092409 4
84.216141 -13.711267 5.9491181 1
70.304169 1.1023916 7.3865042 18
24.359749 0.37213352 0.84954095 9
18.185091 -2.9639437 -1.2827535 2
32.01157 0.48407897 -1.12237 9
10.557419 -1.728406 -1.4948257 15
15.374241 0.23142387 -1.6069986 25
6.9853964 -1.1509129 -1.4987144 10
8.7716227 0.13267778 -1.5406946 14
5.2971992 -0.8811807 -1.5288569 10
6.2006836 0.095334195 -1.5363382 12
43.410408 -3.9566414 10.039546 18
41.099365 3.6850491 11.032006 20
41.555984 -3.7802484 6.5885453 13
41.115685 3.6142418 8.008688 28
41.099438 3.562253 5.0537353 26
50.149376 -4.5711398 0.87837952 2
24.244928 2.0782373 1.2734646 28
21.888617 -1.998088 -1.1539158 8
25.104155 2.1476367 -0.43919334 7
12.343236 -1.1303691 -1.5154225 15
16.131691 1.381248 -1.4106307 17
7.7724543 -0.71253961 -1.507542 12
9.8232088 0.84446716 -1.5578481 14
5.7123952 -0.52625084 -1.5266849 12
6.6504397 0.57837063 -1.5307244 15
43.748489 0.71575582 7.701046 49
90.207451 -14.687014 6.3725266 1
75.837997 1.1893247 7.9682045 3
24.359749 0.37213352 0.84954095 9
18.185091 -2.9639437 -1.2827535 2
32.01157 0.48407897 -1.12237 9
10.557419 -1.728406 -1.4948257 15
15.374241 0.23142387 -1.6069986 25
6.9853964 -1.1509129 -1.4987144 10
8.7716227 0.13267778 -1.5406946 14
5.2971992 -0.8811807 -1.5288569 10
6.2006836 0.095334195 -1.5363382 12
43.410408 -3.9566414 10.039546 18
41.099365 3.6850491 11.032006 20
41.555984 -3.7802484 6.5885453 13
41.115685 3.6142418 8.008688 28
41.099438 3.562253 5.0537353 26
50.149376 -4.5711398 0.87837952 2
24.244928 2.0782373 1.2734646 28
21.888617 -1.998088 -1.1539158 8
25.104155 2.1476367 -0.43919334 7
12.343236 -1.1303691 -1.5154225 15
16.131691 1.381248 -1.4106307 17
7.7724543 -0.71253961 -1.507542 12
9.8232088 0.84446716 -1.5578481 14
5.7123952 -0.52625084 -1.5266849 12
6.6504397 0.57837063 -1.5307244 15
42.160194 0.56455761 10.488334 34
40.93441 0.51951891 7.2049036 2
90.184998 -15.022871 6.3747883 3
24.345961 0.28267276 0.84901744 18
18.151968 -3.0268788 -1.2811879 3
32.040611 0.36706406 -1.1233345 13
10.553453 -1.767499 -1.4951727 15
15.365042 0.17495833 -1.6059569 22
6.971487 -1.1748767 -1.4966336 10
8.7769728 0.10058486 -1.5415628 14
5.2915645 -0.90018505 -1.5281682 12
6.198565 0.0725777 -1.5357338 10
43.434422 -4.1194038 10.048531 4
44.940762 3.8639245 12.060117 1
41.441051 -3.9229875 6.572546 18
41.263157 3.4748628 8.0349007 24
41.225967 3.4210439 5.0677299 26
46.825142 -4.4411345 0.82039398 1
24.247406 1.9889523 1.2732029 22
21.891087 -2.0792453 -1.1544408 8
25.057049 2.0511143 -0.43823344 6
12.319248 -1.1737164 -1.5129886 12
18.452492 1.5125105 -1.6135162 1
7.7673478 -0.7407887 -1.5070659 12
9.8237753 0.80825394 -1.5574565 12
5.7104278 -0.54718429 -1.5266849 10
6.6525145 0.55399168 -1.5307244 15
42.160194 0.56455761 10.488334 34
43.728661 0.55512249 7.6971431 41
90.184998 -15.022871 6.3747883 3
70.161057 0.84294009 7.3710861 1
24.345961 0.28267276 0.84901744 18
18.151968 -3.0268788 -1.2811879 3
32.040611 0.36706406 -1.1233345 13
10.553453 -1.767499 -1.4951727 15
15.365042 0.17495833 -1.6059569 22
6.971487 -1.1748767 -1.4966336 10
8.7769728 0.10058486 -1.5415628 14
5.2915645 -0.90018505 -1.5281682 12
6.198565 0.0725777 -1.5357338 10
43.434422 -4.1194038 10.048531 4
44.940762 3.8639245 12.060117 1
41.441051 -3.9229875 6.572546 18
41.263157 3.4748628 8.0349007 24
41.225967 3.4210439 5.0677299 26
46.825142 -4.4411345 0.82039398 1
24.247406 1.9889523 1.2732029 22
21.891087 -2.0792453 -1.1544408 8
25.057049 2.0511143 -0.43823344 6
12.319248 -1.1737164 -1.5129886 12
18.452492 1.5125105 -1.6135162 1
7.7673478 -0.7407887 -1.5070659 12
9.8237753 0.80825394 -1.5574565 12
5.7104278 -0.54718429 -1.5266849 10
6.6525145 0.55399168 -1.5307244 15
41.84655 0.4142502 10.40982 73
41.036915 0.37756175 7.2226853 38
83.592186 -14.224411 5.9120655 1
69.832901 0.59519911 7.3363299 36
24.356792 0.19776978 0.84936649 32
18.121624 -3.0868676 -1.2797962 3
32.064178 0.25539976 -1.1241237 9
10.53746 -1.8026533 -1.4937845 15
15.360586 0.12128336 -1.605436 22
6.9769821 -1.2008694 -1.4987144 9
8.7748098 0.069926694 -1.5411288 14
5.2883902 -0.91865051 -1.5281682 12
6.2084837 0.051023204 -1.5381513 13
43.650097 -4.2936573 10.101875 4
41.498379 -4.0746207 6.5838628 20
43.853306 3.5391552 8.5372305 1
41.356396 3.2865667 5.0823336 22
44.466034 -4.3739662 0.77929354 2
24.251711 1.9041049 1.273072 6
11.94815 -1.1762055 -0.62946826 2
24.433596 1.9141288 -0.42719471 3
12.295321 -1.2147571 -1.5105547 13
18.400553 1.4435958 -1.6085149 3
7.7573872 -0.76717114 -1.5056373 10
9.8216152 0.77356762 -1.5566734 10
5.7012739 -0.56639582 -1.5247451 12
6.6471233 0.53018051 -1.5290397 14
41.84655 0.4142502 10.40982 73
43.491516 0.40026841 7.6550751 1
69.832901 0.59519911 7.3363299 36
24.356792 0.19776978 0.84936649 32
18.121624 -3.0868676 -1.2797962 3
32.064178 0.25539976 -1.1241237 9
10.53746 -1.8026533 -1.4937845 15
15.360586 0.12128336 -1.605436 22
6.9769821 -1.2008694 -1.4987144 9
8.7748098 0.069926694 -1.5411288 14
5.2883902 -0.91865051 -1.5281682 12
6.2084837 0.051023204 -1.5381513 13
43.650097 -4.2936573 10.101875 4
41.498379 -4.0746207 6.5838628 20
43.853306 3.5391552 8.5372305 1
49.323853 3.9206169 6.0622916 1
49.214874 -4.8412676 0.86258513 1
24.251711 1.9041049 1.273072 6
21.878729 -2.1551571 -1.1541783 1
24.433596 1.9141288 -0.42719471 3
12.295321 -1.2147571 -1.5105547 13
18.400553 1.4435958 -1.6085149 3
7.7573872 -0.76717114 -1.5056373 10
9.8216152 0.77356762 -1.5566734 10
5.7012739 -0.56639582 -1.5247451 12
6.6471233 0.53018051 -1.5290397 14
41.772488 0.27498096 10.391097 79
41.232445 0.24263062 7.256947 38
68.509308 0.35668272 7.1970463 38
24.377302 0.11709633 0.85006446 20
18.089172 -3.1430967 -1.2782305 4
32.049866 0.14899904 -1.1235976 1
10.526546 -1.8367337 -1.4930904 15
15.358417 0.070333429 -1.6051755 20
6.9657373 -1.2227267 -1.4971539 9
8.7725315 0.040815961 -1.5406946 14
5.282949 -0.93576145 -1.5274796 12
6.2061934 0.030422151 -1.5375469 13
43.880398 -4.4632897 10.158589 9
41.695919 -4.2336731 6.6174221 18
51.350613 3.9105885 6.3099432 90
43.364559 -4.41082 0.76022673 18
24.235487 1.8219843 1.2718946 12
11.842352 -1.2054408 -0.6240859 41
24.379986 1.8285954 -0.42614758 3
12.264071 -1.2527456 -1.507208 14
18.303417 1.3748955 -1.5995991 3
7.7645669 -0.79389203 -1.507542 10
9.8142767 0.7402463 -1.5551072 12
5.7089734 -0.58628839 -1.5273316 10
6.6561313 0.50869691 -1.5307244 14
41.772488 0.27498096 10.391097 79
43.741276 0.25751883 7.6988773 1
68.509239 0.36863983 7.1970463 38
24.377302 0.11709633 0.85006446 20
18.089172 -3.1430967 -1.2782305 4
32.049866 0.14899904 -1.1235976 1
10.526867 -1.8348964 -1.4930904 15
15.358417 0.070333429 -1.6051755 20
6.96595 -1.2215109 -1.4971539 9
8.7725315 0.040815961 -1.5406946 14
5.2831125 -0.93483937 -1.5274796 12
6.2061934 0.030422151 -1.5375469 13
43.881176 -4.4556308 10.158589 9
41.696655 -4.2263956 6.6174221 18
51.350613 3.9105885 6.3099432 90
43.36533 -4.4032512 0.76022673 18
24.235487 1.8219843 1.2718946 12
11.842562 -1.2033739 -0.6240859 41
24.379665 1.8328444 -0.42614758 3
12.26429 -1.2506051 -1.507208 14
18.303177 1.37809 -1.5995991 3
7.7645669 -0.79389203 -1.507542 10
9.814147 0.74195915 -1.5551072 12
5.7090759 -0.58529198 -1.5273316 10
6.6560426 0.50985861 -1.5307244 14
41.627636 0.12870881 10.354859 79
68.358452 0.1292045 7.1811051 61
24.382559 0.032009941 0.85023892 27
18.080547 -3.2066567 -1.2784046 4
31.960243 0.037013333 -1.120441 6
10.510647 -1.8698925 -1.4917022 15
15.363541 0.016728202 -1.6056963 17
6.968864 -1.2471159 -1.4987144 10
8.7627726 0.010180116 -1.5389582 14
5.2845459 -0.95413291 -1.5288569 10
6.2111135 0.0087667769 -1.5387557 10
43.877476 -4.6100516 10.161397 35
41.69392 -4.3732061 6.6193728 18
52.492493 3.8134012 6.4486766 2
43.374554 -4.5572109 0.76066309 79
24.276562 1.7398806 1.2737263 19
11.798564 -1.2405225 -0.6219855 39
24.351011 1.7452241 -0.42553672 3
12.24998 -1.2923653 -1.5059911 14
18.315327 1.3147283 -1.6002514 3
7.7495451 -0.8196972 -1.5051612 10
9.8191414 0.70787567 -1.5554988 13
5.7021956 -0.60470611 -1.5260384 10
6.6529226 0.48626307 -1.5296013 13
41.627636 0.12870881 10.354859 79
68.358475 0.1172737 7.1811051 61
24.382559 0.032009941 0.85023892 27
18.080547 -3.2066567 -1.2784046 4
31.960243 0.037013333 -1.120441 6
10.510321 -1.8717269 -1.4917022 15
15.363541 0.016728202 -1.6056963 17
6.9686465 -1.248332 -1.4987144 10
8.7627726 0.010180116 -1.5389582 14
5.2843795 -0.95505518 -1.5288569 10
6.2111135 0.0087667769 -1.5387557 10
43.876667 -4.6177096 10.161397 35
56.231438 4.2530174 15.079832 1
41.693157 -4.3804827 6.6193728 18
52.492493 3.8134012 6.4486766 2
43.373756 -4.5647812 0.76066309 79
24.276562 1.7398806 1.2737263 19
11.798347 -1.2425818 -0.6219855 39
24.351315 1.7409801 -0.42553672 3
12.249754 -1.2945033 -1.5059911 14
18.315556 1.3115317 -1.6002514 3
7.7495451 -0.8196972 -1.5051612 10
9.8192654 0.70616198 -1.5554988 13
5.7020903 -0.60570127 -1.5260384 10
6.653008 0.48510191 -1.5296013 13
41.491978 -0.023799688 10.321037 70
40.910587 -0.052037992 7.2001333 40
68.194344 -0.13296798 7.1638579 20
24.422487 -0.057450935 0.85163492 8
18.036772 -3.267118 -1.2761432 4
10.498519 -1.9093486 -1.491008 15
15.346094 -0.039541725 -1.6038733 13
6.9592147 -1.2729824 -1.497674 10
8.7602892 -0.021932757 -1.538524 14
5.2737551 -0.97310323 -1.526791 12
6.2086778 -0.01399436 -1.5381513 12
43.801327 -4.7721601 10.147921 39
41.730831 -4.5391436 6.6279578 16
52.459084 3.6177332 6.4428959 4
43.297096 -4.7172232 0.7596159 86
24.250395 1.6486834 1.2720255 44
11.850796 -1.2920479 -0.62500489 39
24.365015 1.6522253 -0.42566761 4
12.23506 -1.3383117 -1.5047741 15
18.268059 1.2408357 -1.595685 4
7.751368 -0.84863043 -1.5061135 10
9.8094702 0.6693216 -1.5535413 14
5.7046318 -0.6271255 -1.5273316 10
6.6620307 0.46122396 -1.5312858 12
41.491978 -0.023799688 10.321037 70
40.910587 -0.052037992 7.2001333 40
68.194344 -0.13296798 7.1638579 20
24.422487 -0.057450935 0.85163492 8
18.036201 -3.2702658 -1.2761432 4
10.498519 -1.9093486 -1.491008 15
15.346094 -0.039541725 -1.6038733 13
6.9592147 -1.2729824 -1.497674 10
8.7602844 -0.023461714 -1.538524 14
5.2737551 -0.97310323 -1.526791 12
6.2086749 -0.015077979 -1.5381513 12
43.801327 -4.7721601 10.147921 39
41.730831 -4.5391436 6.6279578 16
52.459717 3.608577 6.4428959 4
43.297096 -4.7172232 0.7596159 86
24.250683 1.644451 1.2720255 44
11.850796 -1.2920479 -0.62500489 39
24.365303 1.6479726 -0.42566761 4
12.23506 -1.3383117 -1.5047741 15
18.268276 1.2376473 -1.595685 4
7.7512193 -0.84998327 -1.5061135 10
9.8095865 0.66760951 -1.5535413 14
5.7045226 -0.6281212 -1.5273316 10
6.6620307 0.46122396 -1.5312858 12
41.137482 -0.16003193 10.23286 67
40.385769 -0.18532233 7.1077576 40
46.287003 -0.24440446 4.8613577 37
24.377192 -0.13818733 0.85006446 10
18.037518 -3.3323259 -1.2770129 4
10.49213 -1.9441525 -1.491008 16
15.358312 -0.090502597 -1.6051755 13
6.9549546 -1.2960528 -1.497674 10
8.7626209 -0.052525915 -1.5389582 13
5.2728601 -0.99103206 -1.5274796 10
6.2134428 -0.035692856 -1.53936 12
43.961987 -4.9372382 10.188912 9
41.779354 -4.68466 6.638104 18
43.298607 -4.8627295 0.75992137 51
24.256004 1.5640237 1.2720255 15
11.809233 -1.327152 -0.62303573 42
24.340698 1.5652349 -0.42514402 4
12.235486 -1.3794339 -1.5053825 16
18.239973 1.1749713 -1.5928581 4
7.7386041 -0.87457812 -1.5042089 12
9.8117466 0.63507605 -1.5535413 12
5.6976099 -0.64648879 -1.5260384 10
6.6586628 0.43880561 -1.5301628 13
41.137482 -0.16003193 10.23286 67
40.385769 -0.18532233 7.1077576 40
68.136421 -0.34691641 7.1578479 1
24.377192 -0.13818733 0.85006446 10
18.038099 -3.3291776 -1.2770129 4
10.492469 -1.9423212 -1.491008 16
15.358312 -0.090502597 -1.6051755 13
6.9551806 -1.2948389 -1.497674 10
8.7626295 -0.050996553 -1.5389582 13
5.2730331 -0.99011171 -1.5274796 10
6.2134485 -0.034608401 -1.53936 12
43.962849 -4.929565 10.188912 9
41.780174 -4.6773682 6.638104 18
43.299454 -4.8551722 0.75992137 51
24.255732 1.5682573 1.2720255 15
11.809464 -1.325091 -0.62303573 42
24.340151 1.5737253 -0.42514402 4
12.235727 -1.3772982 -1.5053825 16
18.239561 1.1813384 -1.5928581 4
7.7387567 -0.87322748 -1.5042089 12
9.8115244 0.63850099 -1.5535413 12
5.697835 -0.64449984 -1.5260384 10
6.658586 0.43996772 -1.5301628 13
40.879528 -0.30174258 10.168839 52
40.345482 -0.32597756 7.1008182 58
46.248642 -0.39757743 4.8574376 55
24.411539 -0.22359625 0.85128593 31
18.019018 -3.3907371 -1.276491 4
10.485625 -1.978935 -1.491008 15
15.335524 -0.14390555 -1.6028314 12
6.9482164 -1.3186519 -1.4971539 10
8.7574749 -0.081538841 -1.53809 13
5.2577443 -1.0062439 -1.5240362 14
6.2035875 -0.056212503 -1.5369426 9
44.039749 -5.093914 10.210812 2
41.866615 -4.8350811 6.6544933 20
43.257412 -5.0034132 0.75948501 18
24.251089 1.482968 1.271502 31
11.777487 -1.3631444 -0.62159169 49
24.345497 1.4887527 -0.42514402 4
12.193872 -1.4157029 -1.500819 16
18.218714 1.1161342 -1.5906836 4
7.7405362 -0.9008038 -1.5051612 13
9.7989063 0.60333109 -1.5511922 12
5.6955504 -0.66438508 -1.5260384 10
6.6649432 0.41702986 -1.5312858 14
40.879528 -0.30174258 10.168839 52
40.345482 -0.32597756 7.1008182 58
46.248573 -0.4056493 4.8574376 55
24.411539 -0.22359625 0.85128593 31
18.018425 -3.3938818 -1.276491 4
10.485279 -1.9807651 -1.491008 15
15.335524 -0.14390555 -1.6028314 12
6.9479861 -1.3198644 -1.4971539 10
8.7574606 -0.083067305 -1.53809 13
5.2575684 -1.0071615 -1.5240362 14
6.2035775 -0.057295233 -1.5369426 9
44.03886 -5.1016002 10.210812 2
41.865772 -4.8423886 6.6544933 20
43.256538 -5.010963 0.75948501 18
24.251347 1.4787353 1.271502 31
11.777249 -1.3651999 -0.62159169 49
24.346014 1.4802604 -0.42514402 4
12.193624 -1.4178313 -1.500819 16
18.219103 1.1097745 -1.5906836 4
7.7403789 -0.90215474 -1.5051612 13
9.7991161 0.59991062 -1.5511922 12
5.6953182 -0.66637313 -1.5260384 10
6.6650162 0.41586664 -1.5312858 14
40.456059 -0.44693017 10.063751 50
40.188915 -0.4720352 7.0734954 43
75.225189 -14.427407 5.3402724 1
46.164738 -0.57413942 4.848814 68
24.395561 -0.31287646 0.85076243 29
17.974028 -3.4537749 -1.2742296 4
10.473087 -2.0182433 -1.4903139 15
15.30506 -0.19972673 -1.5997059 14
6.9455023 -1.3457879 -1.497674 9
8.7595587 -0.11519623 -1.538524 12
5.2562008 -1.0268874 -1.5247248 13
6.2081766 -0.080093056 -1.5381513 8
44.155323 -5.2791767 10.242257 1
41.85265 -4.9963875 6.6552739 26
43.232922 -5.168879 0.7593978 18
24.256603 1.3898398 1.271502 80
11.769688 -1.4080597 -0.62146044 48
24.393702 1.3934494 -0.4258858 5
11.769517 -1.4122005 -1.449098 25
18.173319 1.040132 -1.5863343 4
7.7224007 -0.92875725 -1.5023042 13
9.80618 0.56427705 -1.5519753 12
5.6928372 -0.6872431 -1.5260384 10
6.6640639 0.39129087 -1.5307244 13
40.456059 -0.44693017 10.063751 50
40.188915 -0.4720352 7.0734954 43
78.864815 -15.125654 5.5987711 1
46.164738 -0.57413942 4.848814 68
24.395561 -0.31287646 0.85076243 29
17.974028 -3.4537749 -1.2742296 4
10.473087 -2.0182433 -1.4903139 15
15.30506 -0.19972673 -1.5997059 14
6.9455023 -1.3457879 -1.497674 9
8.7595587 -0.11519623 -1.538524 12
5.2562008 -1.0268874 -1.5247248 13
6.2081766 -0.080093056 -1.5381513 8
44.155323 -5.2791767 10.242257 1
41.85265 -4.9963875 6.6552739 26
43.232922 -5.168879 0.7593978 18
24.256603 1.3898398 1.271502 80
11.769688 -1.4080597 -0.62146044 48
24.393702 1.3934494 -0.4258858 5
11.769517 -1.4122005 -1.449098 25
18.173319 1.040132 -1.5863343 4
7.7224007 -0.92875725 -1.5023042 13
9.80618 0.56427705 -1.5519753 12
5.6928372 -0.6872431 -1.5260384 10
6.6640639 0.39129087 -1.5307244 13
40.044315 -0.58220661 9.9616823 42
40.046707 -0.61018699 7.0487757 36
75.553749 -14.764061 5.3672352 6
46.406078 -0.7391507 4.8744235 58
24.399321 -0.39811209 0.85093695 27
17.915359 -3.5073802 -1.2709244 4
10.465979 -2.0547888 -1.4903139 15
15.247089 -0.25221199 -1.5937155 13
6.9359646 -1.3690739 -1.4966336 9
8.7467937 -0.14557016 -1.5363535 10
5.2455134 -1.0438159 -1.5226588 10
6.1957321 -0.1015684 -1.5351294 9
42.055534 -5.1695733 6.6903939 28
43.222054 -5.3206749 0.7595287 13
24.266294 1.3054291 1.2717637 7
11.777089 -1.4506627 -0.6221168 46
24.400911 1.3084251 -0.4259294 4
11.707875 -1.4462703 -1.4421005 26
18.149481 0.97521216 -1.5839424 5
7.7191119 -0.95570779 -1.5023042 13
9.7982283 0.52950609 -1.5504091 12
5.6927996 -0.70740902 -1.5266849 9
6.6605244 0.36775458 -1.5296013 13
40.044315 -0.58220661 9.9616823 42
40.046707 -0.61018699 7.0487757 36
75.553749 -14.764061 5.3672352 6
46.406078 -0.7391507 4.8744235 58
24.399321 -0.39811209 0.85093695 27
17.915974 -3.5042531 -1.2709244 4
10.465979 -2.0547888 -1.4903139 15
15.247089 -0.25221199 -1.5937155 13
6.9359646 -1.3690739 -1.4966336 9
8.7468204 -0.14404355 -1.5363535 10
5.2455134 -1.0438159 -1.5226588 10
6.1957498 -0.10048705 -1.5351294 9
42.055534 -5.1695733 6.6903939 28
43.222054 -5.3206749 0.7595287 13
24.266066 1.3096642 1.2717637 7
11.777089 -1.4506627 -0.6221168 46
24.400682 1.3126838 -0.4259294 4
11.707875 -1.4462703 -1.4421005 26
18.149311 0.97837985 -1.5839424 5
7.7192788 -0.95436049 -1.5023042 13
9.7981348 0.53121614 -1.5504091 12
5.6929231 -0.70641547 -1.5266849 9
6.6605244 0.36775458 -1.5296013 13
40.017906 -0.71456313 9.9556427 38
40.051846 -0.7431199 7.0500765 34
73.097496 -14.535768 5.196063 3
46.390938 -0.89279592 4.873117 38
24.412853 -0.47931394 0.8514604 17
17.870012 -3.5568221 -1.2684891 4
10.454251 -2.0885119 -1.4896197 14
15.266057 -0.30316406 -1.5957992 13
6.9361811 -1.3930327 -1.497674 9
8.7487555 -0.17309636 -1.5367875 14
5.2514439 -1.06312 -1.5254135 14
6.1929564 -0.12098575 -1.534525 10
42.616333 -5.3820462 6.7824864 18
43.214092 -5.4652295 0.75970322 13
24.270275 1.229188 1.2717637 21
11.764785 -1.4887677 -0.621723 49
24.88172 1.2559155 -0.43426299 6
11.720244 -1.4872761 -1.4442302 21
18.112663 0.91616625 -1.5804632 4
7.7233753 -0.98088253 -1.5037327 13
9.8047752 0.49897474 -1.5511922 10
5.6881542 -0.72498399 -1.5260384 10
6.666573 0.34592131 -1.5307244 13
40.017906 -0.71456313 9.9556427 38
40.051846 -0.7431199 7.0500765 34
46.391094 -0.88469923 4.873117 38
24.412853 -0.47931394 0.8514604 17
17.870012 -3.5568221 -1.2684891 4
10.454617 -2.0866876 -1.4896197 14
15.266057 -0.30316406 -1.5957992 13
6.9364238 -1.3918221 -1.497674 9
8.7487555 -0.17309636 -1.5367875 14
5.2516294 -1.0622033 -1.5254135 14
6.1929564 -0.12098575 -1.534525 10
42.617271 -5.374608 6.7824864 18
43.215046 -5.4576874 0.75970322 13
24.270275 1.229188 1.2717637 21
11.765043 -1.4867144 -0.621723 49
24.881498 1.2602521 -0.43426299 6
11.720504 -1.4852306 -1.4442302 21
18.112501 0.91932744 -1.5804632 4
7.7233753 -0.98088253 -1.5037327 13
9.8046865 0.50068599 -1.5511922 10
5.6882811 -0.72399127 -1.5260384 10
6.6665125 0.34708482 -1.5307244 13
39.99091 -0.8537308 9.9496031 34
40.248386 -0.8873077 7.0852051 32
73.2883 -14.839849 5.213285 3
47.173199 -1.0643166 4.9556947 44
24.406036 -0.56441277 0.85128593 12
17.813494 -3.6102519 -1.2653579 5
10.437563 -2.121192 -1.4882314 15
15.22762 -0.35558501 -1.5918924 13
6.9243369 -1.4145538 -1.4961135 10
8.7579432 -0.20386104 -1.538524 12
5.2431822 -1.0795553 -1.5240362 12
6.1852212 -0.14243737 -1.5327119 10
42.732941 -5.5408068 6.8039489 23
43.242828 -5.6146193 0.7605322 20
24.279406 1.1446975 1.2720255 41
11.769685 -1.5290607 -0.62224805 42
25.110462 1.1840285 -0.43818983 7
11.904714 -1.5508417 -1.4676567 32
18.08326 0.85456103 -1.5776361 4
7.7126036 -1.0068815 -1.5023042 10
9.7965107 0.46598434 -1.5496261 12
5.6761408 -0.74258673 -1.5234518 10
6.6579504 0.32333285 -1.5284783 13
39.99091 -0.8537308 9.9496031 34
40.248386 -0.8873077 7.0852051 32
47.173016 -1.0725499 4.9556947 44
24.406036 -0.56441277 0.85128593 12
17.813494 -3.6102519 -1.2653579 5
10.437194 -2.1230137 -1.4882314 15
15.22762 -0.35558501 -1.5918924 13
6.9240899 -1.4157623 -1.4961135 10
8.7579432 -0.20386104 -1.538524 12
5.2429938 -1.0804704 -1.5240362 12
6.1852212 -0.14243737 -1.5327119 10
42.731972 -5.5482645 6.8039489 23
43.241844 -5.6221666 0.7605322 20
24.279406 1.1446975 1.2720255 41
11.769417 -1.5311149 -0.62224805 42
25.110668 1.1796519 -0.43818983 7
11.904443 -1.5529194 -1.4676567 32
18.083406 0.85140491 -1.5776361 4
7.7126036 -1.0068815 -1.5023042 10
9.7965908 0.46427453 -1.5496261 12
5.6760111 -0.74357748 -1.5234518 10
6.6580071 0.32217079 -1.5284783 13
39.812897 -0.99594021 9.9061174 30
40.040581 -1.029577 7.0492091 36
70.17543 -14.477312 4.9954915 6
48.110744 -1.2702717 5.0547352 20
24.4063 -0.65392816 0.85137314 17
17.783045 -3.671983 -1.2641401 4
10.419647 -2.1592407 -1.4868432 14
15.193903 -0.41052598 -1.5885065 9
6.9236417 -1.4421309 -1.4971539 9
8.7522154 -0.23582765 -1.5376557 10
5.2342954 -1.0986885 -1.5226588 10
6.1870823 -0.16517031 -1.5333163 10
42.777431 -5.7136769 6.8144846 23
43.352264 -5.7981853 0.76284462 81
24.275953 1.0553746 1.2716328 37
11.788471 -1.5775565 -0.62356085 42
25.092346 1.0866314 -0.43779713 6
11.972451 -1.6064509 -1.4767839 18
18.049086 0.78349066 -1.5743744 4
7.706429 -1.0348157 -1.5018281 12
9.8056278 0.42869216 -1.5508007 10
5.6852131 -0.76599175 -1.5266849 10
6.6615767 0.29787633 -1.5290397 15
39.812897 -0.99594021 9.9061174 30
40.040581 -1.029577 7.0492091 36
58.383076 -1.5410562 6.1347756 1
24.4063 -0.65392816 0.85137314 17
17.782404 -3.6750865 -1.2641401 4
10.419647 -2.1592407 -1.4868432 14
15.193903 -0.41052598 -1.5885065 9
6.9236417 -1.4421309 -1.4971539 9
8.7521744 -0.2373552 -1.5376557 10
5.2342954 -1.0986885 -1.5226588 10
6.1870537 -0.16625015 -1.5333163 10
42.777431 -5.7136769 6.8144846 23
43.352264 -5.7981853 0.76284462 81
24.276136 1.0511376 1.2716328 37
11.788471 -1.5775565 -0.62356085 42
25.092537 1.082252 -0.43779713 6
11.972451 -1.6064509 -1.4767839 18
18.049221 0.78034043 -1.5743744 4
7.7062483 -1.0361607 -1.5018281 12
9.8057022 0.4269807 -1.5508007 10
5.6850796 -0.76698399 -1.5266849 10
6.6615767 0.29787633 -1.5290397 15
39.409061 -1.1235211 9.8064651 32
40.088421 -1.1708453 7.0583167 39
48.439034 -1.4481436 5.0897522 18
24.396378 -0.73889178 0.85111141 14
17.759706 -3.735081 -1.2634443 5
10.414468 -2.1961102 -1.4871902 14
15.145159 -0.46212566 -1.5835578 9
6.9209576 -1.4667987 -1.497674 13
8.7537527 -0.26797932 -1.53809 10
5.2304287 -1.116953 -1.5226588 15
6.184011 -0.18777318 -1.5327119 10
42.984749 -5.8941703 6.8507757 9
43.299564 -5.9450564 0.76227742 23
24.267185 0.96589291 1.2709787 22
11.807626 -1.6220975 -0.62487358 41
24.499226 0.97088933 -0.42736924 5
12.104427 -1.6672119 -1.4938214 13
18.016998 0.71593899 -1.5713301 4
7.6952915 -1.0620462 -1.5003996 12
9.7972641 0.39234999 -1.5492346 13
5.6728005 -0.78549629 -1.5240985 10
6.6504059 0.27411118 -1.5262321 14
39.409061 -1.1235211 9.8064651 32
40.088421 -1.1708453 7.0583167 39
48.439285 -1.4396893 5.0897522 18
24.396378 -0.73889178 0.85111141 14
17.760357 -3.7319815 -1.2634443 5
10.414851 -2.1942925 -1.4871902 14
15.145159 -0.46212566 -1.5835578 9
6.9212132 -1.4655906 -1.497674 13
8.7538004 -0.26645148 -1.53809 10
5.2306232 -1.1160401 -1.5226588 15
6.1840439 -0.18669386 -1.5327119 10
42.985775 -5.8866682 6.8507757 9
43.300602 -5.937499 0.76227742 23
24.267019 0.9701283 1.2709787 22
11.807908 -1.6200368 -0.62487358 41
24.498884 0.97943497 -0.42736924 5
12.104719 -1.6650993 -1.4938214 13
18.016745 0.72222805 -1.5713301 4
7.695477 -1.060703 -1.5003996 12
9.7971268 0.39576986 -1.5492346 13
5.6730742 -0.78351605 -1.5240985 10
6.6503582 0.27527186 -1.5262321 14
39.351776 -1.2525051 9.7931776 36
40.337784 -1.312008 7.1029868 30
48.449158 -1.6008041 5.09132 4
24.386301 -0.81953794 0.85084969 14
17.750324 -3.7913778 -1.2636184 5
10.395414 -2.2262206 -1.4854549 15
15.118692 -0.51150882 -1.5809532 12
6.918705 -1.48905 -1.4981942 12
8.7381048 -0.29498377 -1.5354851 10
5.2292418 -1.1338905 -1.5233475 12
6.1882396 -0.20736071 -1.5339206 10
24.277588 0.88992643 1.2713711 22
11.871693 -1.668925 -0.62854934 8
25.111492 0.9206441 -0.43801531 7
12.113873 -1.7073107 -1.4956468 12
17.956821 0.66017509 -1.5658938 5
7.6967769 -1.0869037 -1.5013518 10
9.788516 0.36290872 -1.5476685 12
5.6608806 -0.80096835 -1.5215119 10
6.6512341 0.25321701 -1.5262321 14
39.351776 -1.2525051 9.7931776 36
40.337784 -1.312008 7.1029868 30
56.587376 -1.8693546 5.9471469 4
24.386301 -0.81953794 0.85084969 14
17.750324 -3.7913778 -1.2636184 5
10.395414 -2.2262206 -1.4854549 15
15.118692 -0.51150882 -1.5809532 12
6.918705 -1.48905 -1.4981942 12
8.7381048 -0.29498377 -1.5354851 10
5.2292418 -1.1338905 -1.5233475 12
6.1882396 -0.20736071 -1.5339206 10
24.277588 0.88992643 1.2713711 22
11.871693 -1.668925 -0.62854934 8
25.111492 0.9206441 -0.43801531 7
12.113873 -1.7073107 -1.4956468 12
17.956821 0.66017509 -1.5658938 5
7.6967769 -1.0869037 -1.5013518 10
9.788516 0.36290872 -1.5476685 12
5.6608806 -0.80096835 -1.5215119 10
6.6512341 0.25321701 -1.5262321 14
39.463291 -1.4008528 9.8221674 30
40.017757 -1.4484611 7.0474744 35
67.967979 -14.765472 4.849021 3
41.09341 -1.5088724 4.3183322 36
24.410599 -0.90993416 0.85180944 10
17.70219 -3.8489845 -1.2611829 5
10.392022 -2.2653632 -1.4861491 14
15.062054 -0.5648756 -1.5752233 12
6.8988714 -1.5112504 -1.4950731 12
8.7345047 -0.32691702 -1.5350511 10
5.2180123 -1.1514897 -1.5212816 13
6.1801653 -0.22977243 -1.5321076 10
41.535702 1.4603822 8.0644493 16
75.981766 2.5824046 9.3170538 9
24.278191 0.80085588 1.2712404 90
11.947036 -1.7242049 -0.63288146 21
24.88236 0.82089233 -0.43395758 6
12.107535 -1.7516987 -1.4956468 12
17.956631 0.59427267 -1.5656762 4
7.6927414 -1.1151063 -1.5013518 10
9.7897806 0.32702959 -1.5476685 13
5.6650758 -0.82275444 -1.5234518 10
6.649683 0.22875187 -1.5256706 15
39.463291 -1.4008528 9.8221674 30
40.017757 -1.4484611 7.0474744 35
53.501339 -1.9732008 5.6233702 9
24.410599 -0.90993416 0.85180944 10
17.701519 -3.8520739 -1.2611829 5
10.391626 -2.2671769 -1.4861491 14
15.062054 -0.5648756 -1.5752233 12
6.8986077 -1.5124545 -1.4950731 12
8.7344475 -0.32844147 -1.5350511 10
5.2178106 -1.1524005 -1.5212816 13
6.1801252 -0.23085105 -1.5321076 10
41.535957 1.4531329 8.0644493 16
24.27833 0.79661858 1.2712404 90
11.946735 -1.72629 -0.63288146 21
24.882647 0.81221277 -0.43395758 6
12.107229 -1.753812 -1.4956468 12
17.956839 0.58800459 -1.5656762 4
7.6925468 -1.116449 -1.5013518 10
9.7898941 0.32361227 -1.5476685 13
5.6647887 -0.82473183 -1.5234518 10
6.6497231 0.22759128 -1.5256706 15
39.392712 -1.5360482 9.8058615 30
39.914051 -1.5842396 7.0301266 37
67.794266 -14.97573 4.8403234 2
41.182007 -1.6632854 4.3282623 79
24.419756 -0.99564546 0.85224569 9
17.666052 -3.9089861 -1.2596172 6
10.376399 -2.3018255 -1.4851079 15
15.055021 -0.6172455 -1.5747024 12
6.8956723 -1.5370593 -1.4955933 10
8.7332478 -0.35892838 -1.5350511 10
5.2161007 -1.1711354 -1.5219703 15
6.1695862 -0.25202951 -1.52969 10
41.373978 1.3028654 8.0320415 16
89.967476 -13.299638 7.9536152 13
75.995682 2.3040507 9.3176622 36
24.295937 0.71230829 1.2720255 6
11.920878 -1.7650533 -0.63183123 40
24.712929 0.72029459 -0.43094701 10
12.091215 -1.7946047 -1.4944299 15
17.926414 0.52436495 -1.5628492 5
7.69103 -1.1436557 -1.5018281 10
9.786027 0.28928897 -1.5468855 13
5.6547103 -0.8434298 -1.5215119 10
6.6431718 0.20414846 -1.523986 15
39.392712 -1.5360482 9.8058615 30
39.914051 -1.5842396 7.0301266 37
41.182007 -1.6632854 4.3282623 79
24.419756 -0.99564546 0.85224569 9
17.666735 -3.9059024 -1.2596172 6
10.376399 -2.3018255 -1.4851079 15
15.055021 -0.6172455 -1.5747024 12
6.8956723 -1.5370593 -1.4955933 10
8.7333107 -0.35740417 -1.5350511 10
5.2161007 -1.1711354 -1.5219703 15
6.1696296 -0.25095272 -1.52969 10
41.282993 1.3072026 8.0144072 1
89.967476 -13.299638 7.9536152 13
75.995277 2.3173144 9.3176622 36
24.295811 0.71654874 1.2720255 6
11.920878 -1.7650533 -0.63183123 40
24.712801 0.72460783 -0.43094701 10
12.091215 -1.7946047 -1.4944299 15
17.926325 0.52749372 -1.5628492 5
7.6912298 -1.1423134 -1.5018281 10
9.7859764 0.29099694 -1.5468855 13
5.6548567 -0.84244287 -1.5215119 10
6.6431718 0.20414846 -1.523986 15
39.174107 -1.6576564 9.7527132 30
39.77821 -1.7109897 7.0071406 34
41.350147 -1.8074324 4.3465548 60
24.391359 -1.0755202 0.85137314 1
12.972184 -2.91202 -0.92492545 3
10.36871 -2.3362222 -1.4851079 14
15.035503 -0.66639811 -1.5728792 12
6.8953061 -1.5610002 -1.4966336 12
8.7320776 -0.38636288 -1.5350511 9
5.2121887 -1.1884263 -1.5219703 13
6.1711879 -0.27151638 -1.5302944 10
41.311634 1.1709942 8.0191727 70
89.984428 -13.607218 7.9590626 25
75.78923 2.0594828 9.2914972 70
24.283079 0.63558221 1.2712404 13
11.942114 -1.8086907 -0.63327527 12
24.732561 0.64311123 -0.43125242 9
12.092557 -1.8358089 -1.4953426 15
15.527945 0.40477845 -1.3532226 4
7.6801209 -1.1667048 -1.5003996 13
9.7918243 0.25867662 -1.5476685 14
5.6544194 -0.86155486 -1.5221585 10
6.653553 0.18239158 -1.5262321 14
39.174107 -1.6576564 9.7527132 30
39.77821 -1.7109897 7.0071406 34
41.35046 -1.8002152 4.3465548 60
53.440514 -2.3539932 1.866774 1
17.68045 -3.9704831 -1.2615308 1
10.369118 -2.3344126 -1.4851079 14
15.035503 -0.66639811 -1.5728792 12
6.8955784 -1.5597967 -1.4966336 12
8.7320776 -0.38636288 -1.5350511 9
5.2123961 -1.1875165 -1.5219703 13
6.1711879 -0.27151638 -1.5302944 10
41.311634 1.1709942 8.0191727 70
89.986809 -13.591513 7.9590626 25
75.78923 2.0594828 9.2914972 70
24.283079 0.63558221 1.2712404 13
11.942428 -1.8066065 -0.63327527 12
24.732449 0.64742178 -0.43125242 9
12.092877 -1.8336983 -1.4953426 15
15.527873 0.40748858 -1.3532226 4
7.6801209 -1.1667048 -1.5003996 13
9.7917795 0.26038557 -1.5476685 14
5.6545701 -0.86056793 -1.5221585 10
6.6535215 0.18355283 -1.5262321 14
39.136578 -1.792948 9.7448606 36
40.032692 -1.861943 7.053112 29
67.38195 -15.366399 4.8182306 4
41.261967 -1.9406936 4.3379312 38
12.94249 -2.9528399 -0.9235338 3
10.360906 -2.3705931 -1.4851079 14
15.015702 -0.71804875 -1.5710561 10
6.8829436 -1.5822097 -1.4950731 10
8.7331333 -0.41695797 -1.5354851 9
5.2082191 -1.205704 -1.5219703 10
6.1726251 -0.29317045 -1.5308988 10
41.109386 1.0216379 7.9791393 64
89.867439 -13.894505 7.9527435 26
75.743866 1.7936798 9.2851086 52
24.292635 0.55098575 1.2716328 27
25.189369 0.57148618 -0.43919334 4
12.076595 -1.8743758 -1.4941257 15
15.419646 0.35075933 -1.3436545 24
7.6735764 -1.1931288 -1.4999233 13
9.7901602 0.22614616 -1.5472771 10
5.6539178 -0.88067329 -1.5228052 10
6.6468153 0.16014548 -1.5245476 14
39.136578 -1.792948 9.7448606 36
40.032692 -1.861943 7.053112 29
67.38195 -15.366399 4.8182306 4
41.261627 -1.9478952 4.3379312 38
53.349613 -2.5366082 1.8638947 30
17.710245 -4.0421743 -1.264662 1
10.360492 -2.3724017 -1.4851079 14
15.015702 -0.71804875 -1.5710561 10
6.8826675 -1.5834111 -1.4950731 10
8.7331333 -0.41695797 -1.5354851 9
5.2080088 -1.2066128 -1.5219703 10
6.1726251 -0.29317045 -1.5308988 10
41.109386 1.0216379 7.9791393 64
89.865013 -13.91019 7.9527435 26
75.743866 1.7936798 9.2851086 52
24.292635 0.55098575 1.2716328 27
25.18947 0.56709588 -0.43919334 4
12.076267 -1.8764834 -1.4941257 15
15.419706 0.34806806 -1.3436545 24
7.6735764 -1.1931288 -1.4999233 13
9.7902002 0.22443745 -1.5472771 10
5.6537638 -0.88166004 -1.5228052 10
6.646843 0.15898539 -1.5245476 14
39.141861 -1.9369775 9.7478809 34
92.542397 -21.496962 13.347395 1
39.900192 -2.0023706 7.0309939 25
64.494896 -14.956717 4.615572 2
41.224411 -2.0975988 4.334795 34
46.99464 -2.4073565 1.6420212 9
12.90486 -2.9940484 -0.92162031 3
10.351727 -2.4103587 -1.4851079 13
14.99807 -0.77231407 -1.5694933 12
6.8815794 -1.6097434 -1.4961135 10
8.7266293 -0.44871196 -1.5346169 12
5.2012124 -1.2251402 -1.5212816 15
6.1715093 -0.31579226 -1.5308988 9
40.862583 0.86562783 7.9305263 63
89.879837 -14.249997 7.9586263 25
75.806984 1.517198 9.2921057 40
24.306974 0.46218482 1.272287 17
24.73653 0.46611381 -0.43125242 1
12.054605 -1.9183908 -1.4923003 16
15.363607 0.29045001 -1.3386531 28
7.6764221 -1.2224051 -1.5013518 14
9.7958937 0.18865044 -1.5480601 10
5.6385717 -0.90046865 -1.5195721 10
6.6571231 0.13482648 -1.5267936 14
39.141861 -1.9369775 9.7478809 34
39.900192 -2.0023706 7.0309939 25
67.507393 -15.655529 4.8312774 1
41.224411 -2.0975988 4.334795 34
53.374893 -2.7339156 1.8651162 4
17.675877 -4.1025434 -1.2632704 1
10.351727 -2.4103587 -1.4851079 13
14.99807 -0.77231407 -1.5694933 12
6.8815794 -1.6097434 -1.4961135 10
8.7266293 -0.44871196 -1.5346169 12
5.2012124 -1.2251402 -1.5212816 15
6.1715093 -0.31579226 -1.5308988 9
40.862583 0.86562783 7.9305263 63
89.879837 -14.249997 7.9586263 25
75.806984 1.517198 9.2921057 40
24.306974 0.46218482 1.272287 17
24.73653 0.46611381 -0.43125242 1
12.054605 -1.9183908 -1.4923003 16
15.363607 0.29045001 -1.3386531 28
7.6764221 -1.2224051 -1.5013518 14
9.7958937 0.18865044 -1.5480601 10
5.6385717 -0.90046865 -1.5195721 10
6.6571231 0.13482648 -1.5267936 14
39.14455 -2.0741093 9.7502975 36
92.0644 -21.724892 13.289289 40
39.99622 -2.1471741 7.0492091 32
64.527252 -15.201776 4.6216607 1
41.216839 -2.2414861 4.334795 22
46.931061 -2.5683823 1.6401018 43
17.557076 -4.1395845 -1.2557902 4
10.333612 -2.4441948 -1.4837196 14
14.970456 -0.82330042 -1.5668888 13
6.8735394 -1.6331881 -1.4955933 12
8.725009 -0.47917083 -1.5346169 10
5.2062507 -1.2455323 -1.5240362 14
6.180058 -0.33785939 -1.5333163 9
40.678871 0.71966529 7.8943057 37
89.551758 -14.518609 7.9340053 25
76.087219 1.2571397 9.3258772 53
24.313431 0.37741321 1.2725487 16
20.877182 -3.3909335 -1.1103321 1
24.782993 0.38046324 -0.4320378 1
12.038038 -1.9588621 -1.4910833 16
15.329664 0.23627156 -1.3356087 32
7.6696863 -1.2487985 -1.5008757 12
9.7890863 0.15433501 -1.5468855 12
5.6377769 -0.92053521 -1.5202187 10
6.6575537 0.11158797 -1.5267936 15
39.14455 -2.0741093 9.7502975 36
92.0644 -21.724892 13.289289 40
39.99622 -2.1471741 7.0492091 32
64.527252 -15.201776 4.6216607 1
41.216839 -2.2414861 4.334795 22
46.931061 -2.5683823 1.6401018 43
17.557076 -4.1395845 -1.2557902 4
10.333612 -2.4441948 -1.4837196 14
14.970456 -0.82330042 -1.5668888 13
6.8735394 -1.6331881 -1.4955933 12
8.725009 -0.47917083 -1.5346169 10
5.2062507 -1.2455323 -1.5240362 14
6.180058 -0.33785939 -1.5333163 9
40.678871 0.71966529 7.8943057 37
89.551758 -14.518609 7.9340053 25
76.087219 1.2571397 9.3258772 53
24.313431 0.37741321 1.2725487 16
20.877182 -3.3909335 -1.1103321 1
24.782993 0.38046324 -0.4320378 1
12.038038 -1.9588621 -1.4910833 16
15.329664 0.23627156 -1.3356087 32
7.6696863 -1.2487985 -1.5008757 12
9.7890863 0.15433501 -1.5468855 12
5.6377769 -0.92053521 -1.5202187 10
6.6575537 0.11158797 -1.5267936 15
39.198013 -2.2073126 9.7653961 31
91.784813 -21.980476 13.259368 61
40.023293 -2.281755 7.0552807 31
64.541977 -15.431334 4.6263571 6
42.601681 -2.4584448 4.4813962 36
46.959702 -2.7261677 1.6414105 31
17.460793 -4.1780319 -1.2498758 5
10.323043 -2.4778702 -1.4833724 15
14.952749 -0.87207317 -1.5653261 14
6.8704629 -1.6565471 -1.4961135 12
8.713541 -0.50753111 -1.5328804 13
5.197422 -1.2616525 -1.5226588 12
6.1740603 -0.35807204 -1.5321076 9
40.59024 0.58344984 7.8766713 39
89.375343 -14.794341 7.9226747 18
76.619469 1.0118293 9.3906803 64
24.337019 0.29706332 1.2737263 9
20.900301 -3.4658666 -1.11217 2
24.719133 0.2974838 -0.43090338 3
12.019238 -1.9967358 -1.489562 15
15.312932 0.18521923 -1.3340865 32
7.665503 -1.2742252 -1.5008757 10
9.7771988 0.12171294 -1.5449278 13
5.6275477 -0.93803245 -1.5182788 10
6.6627579 0.089578994 -1.5279167 14
39.198013 -2.2073126 9.7653961 31
91.784813 -21.980476 13.259368 61
40.023293 -2.281755 7.0552807 31
64.541977 -15.431334 4.6263571 6
42.602112 -2.4510095 4.4813962 36
46.959702 -2.7261677 1.6414105 31
17.460793 -4.1780319 -1.2498758 5
10.323476 -2.4760683 -1.4833724 15
14.952749 -0.87207317 -1.5653261 14
6.8707514 -1.6553479 -1.4961135 12
8.713541 -0.50753111 -1.5328804 13
5.1976423 -1.2607454 -1.5226588 12
6.1740603 -0.35807204 -1.5321076 9
40.59024 0.58344984 7.8766713 39
89.377922 -14.778742 7.9226747 18
76.619469 1.0118293 9.3906803 64
24.337019 0.29706332 1.2737263 9
20.900906 -3.4622188 -1.11217 2
24.71908 0.30179203 -0.43090338 3
12.019586 -1.9946378 -1.489562 15
15.3129 0.18789184 -1.3340865 32
7.665503 -1.2742252 -1.5008757 10
9.7771778 0.12341939 -1.5449278 13
5.6277113 -0.93705022 -1.5182788 10
6.6627426 0.090741865 -1.5279167 14
39.630802 -2.3704646 9.8753166 31
92.000999 -22.37211 13.301816 36
40.076523 -2.4251628 7.066123 31
35.458431 -2.1645665 3.730098 18
17.433983 -4.2360082 -1.2490059 5
10.31477 -2.512089 -1.4833724 15
14.919836 -0.92242563 -1.5622007 15
6.8578072 -1.6775739 -1.4945529 12
8.7068024 -0.53764164 -1.5320122 13
5.2002096 -1.2806104 -1.5247248 14
6.1655092 -0.37917712 -1.5302944 10
40.655834 0.44246164 7.8890629 39
89.09005 -15.050808 7.9017577 38
68.662521 0.66656774 8.4146767 18
24.305452 0.2118206 1.2720255 26
20.814846 -3.5226517 -1.1082317 2
24.669994 0.21505953 -0.43003076 5
12.010104 -2.0361669 -1.4892578 15
15.318443 0.1344839 -1.3345215 35
7.6537504 -1.2997409 -1.4994472 10
9.7676725 0.089195102 -1.5433618 12
5.6339283 -0.95831138 -1.5208653 10
6.6484032 0.06732583 -1.5245476 12
39.630802 -2.3704646 9.8753166 31
92.000999 -22.37211 13.301816 36
40.076523 -2.4251628 7.066123 31
41.250259 -2.5250218 4.3400221 1
17.443678 -4.2383661 -1.2497017 5
10.314331 -2.5138891 -1.4833724 15
14.919836 -0.92242563 -1.5622007 15
6.8575144 -1.6787708 -1.4945529 12
8.7068024 -0.53764164 -1.5320122 13
5.199986 -1.2815181 -1.5247248 14
6.1655092 -0.37917712 -1.5302944 10
40.655834 0.44246164 7.8890629 39
89.087418 -15.066358 7.9017577 38
76.627495 0.74441975 9.3912888 1
24.305452 0.2118206 1.2720255 26
20.814232 -3.5262847 -1.1082317 2
24.670033 0.21075986 -0.43003076 5
12.009748 -2.0382633 -1.4892578 15
15.318466 0.13181032 -1.3345215 35
7.6537504 -1.2997409 -1.4994472 10
9.7676878 0.087490313 -1.5433618 12
5.6337609 -0.95929468 -1.5208653 10
6.6484151 0.06616547 -1.5245476 12
39.648479 -2.5173924 9.8819599 32
42.747608 -10.558837 6.1834602 9
41.61776 -2.671479 7.3397818 30
35.427525 -2.2992527 3.7277462 29
35.587524 -2.3220961 1.244167 3
17.372341 -4.2885122 -1.2457008 5
10.305049 -2.5516763 -1.4833724 15
14.913873 -0.97694117 -1.5619402 15
6.851315 -1.7038937 -1.4945529 9
8.6998596 -0.56922972 -1.531144 12
5.1952538 -1.3005685 -1.5247248 13
6.1640782 -0.40177229 -1.5302944 10
40.963943 0.29569632 7.9486375 30
88.989883 -15.385563 7.8980532 30
68.622314 0.4146449 8.4095049 38
24.33103 0.12286596 1.2733338 10
20.705233 -3.5859265 -1.103112 3
24.678137 0.1203762 -0.43016165 4
11.992418 -2.0805693 -1.4880409 13
15.328808 0.075716622 -1.3353913 36
7.6537714 -1.3286251 -1.5003996 9
9.7704134 0.051703591 -1.5437534 12
5.6254492 -0.97910756 -1.5195721 10
6.6607928 0.041882403 -1.5273552 12
39.648479 -2.5173924 9.8819599 32
91.985672 -22.725788 13.311558 1
41.61776 -2.671479 7.3397818 30
42.079781 -2.7453454 1.4713627 20
17.371592 -4.2915444 -1.2457008 5
10.305049 -2.5516763 -1.4833724 15
14.913873 -0.97694117 -1.5619402 15
6.851315 -1.7038937 -1.4945529 9
8.6997604 -0.57074815 -1.531144 12
5.1952538 -1.3005685 -1.5247248 13
6.1640081 -0.40284809 -1.5302944 10
40.963993 0.28854677 7.9486375 30
88.989883 -15.385563 7.8980532 30
68.622391 0.40266803 8.4095049 38
24.331053 0.11861938 1.2733338 10
20.705233 -3.5859265 -1.103112 3
24.678158 0.11606904 -0.43016165 4
11.992418 -2.0805693 -1.4880409 13
15.328821 0.073041238 -1.3353913 36
7.6535387 -1.3299609 -1.5003996 9
9.770422 0.049998332 -1.5437534 12
5.6252789 -0.98008931 -1.5195721 10
6.6607928 0.041882403 -1.5273552 12
39.545048 -2.6494563 9.8584051 32
42.554405 -10.668842 6.1608443 29
40.581379 -2.7472754 7.1584992 37
41.191448 -2.8174229 4.3358407 23
35.546799 -2.4440796 1.2430328 29
17.325058 -4.3442631 -1.2434393 5
10.281673 -2.5840056 -1.4812901 16
14.885567 -1.0272858 -1.5593357 13
6.8476963 -1.7283987 -1.4950731 10
8.7001705 -0.60128164 -1.5315781 13
5.1883531 -1.3181016 -1.5240362 10
6.1601439 -0.42419615 -1.52969 10
40.54755 0.14402479 7.8676167 30
76.28035 -13.462357 6.7737446 4
46.650482 0.10943563 5.7154579 22
24.338806 0.033699207 1.2737263 31
20.702421 -3.6599185 -1.1036371 4
24.695911 0.029949935 -0.43046707 4
11.982638 -2.1219847 -1.4877366 15
15.351398 0.019568438 -1.3373485 36
7.6464338 -1.3562394 -1.4999233 10
9.7680664 0.015887719 -1.5433618 13
5.6289554 -1.0009898 -1.5215119 10
6.643846 0.018572114 -1.5234245 14
39.545048 -2.6494563 9.8584051 32
42.554405 -10.668842 6.1608443 29
40.581379 -2.7472754 7.1584992 37
41.191448 -2.8174229 4.3358407 23
42.306736 -2.9084821 1.4796513 1
17.325817 -4.341239 -1.2434393 5
10.281673 -2.5840056 -1.4812901 16
14.885567 -1.0272858 -1.5593357 13
6.8476963 -1.7283987 -1.4950731 10
8.7002754 -0.59976315 -1.5315781 13
5.1883531 -1.3181016 -1.5240362 10
6.1602173 -0.42312106 -1.52969 10
76.28035 -13.462357 6.7737446 4
68.546425 0.17490438 8.400074 9
24.3388 0.037947129 1.2737263 31
20.702421 -3.6599185 -1.1036371 4
24.695904 0.034260187 -0.43046707 4
11.982638 -2.1219847 -1.4877366 15
15.351394 0.022247761 -1.3373485 36
7.6466703 -1.354905 -1.4999233 10
9.7680635 0.017592568 -1.5433618 13
5.6291304 -1.0000073 -1.5215119 10
6.643846 0.018572114 -1.5234245 14
39.523945 -2.7797272 9.8553858 36
42.490005 -10.802577 6.1566696 13
41.485641 -2.9466794 7.3198323 37
41.258751 -2.9595134 4.3439417 29
42.015259 -3.0284765 1.4697921 65
17.262987 -4.386375 -1.2399603 5
10.280245 -2.6199238 -1.4823313 15
14.872158 -1.0759262 -1.5582938 14
6.8395581 -1.7504892 -1.4945529 10
8.693327 -0.62825727 -1.5307099 12
5.1862812 -1.335901 -1.5247248 14
6.1563611 -0.44337329 -1.5290856 9
40.314655 0.016518295 7.8223395 6
74.389587 -13.383144 6.609674 4
46.682854 -0.037150539 5.7194123 68
24.34129 -0.042770784 1.2738571 17
20.64349 -3.7201338 -1.1011428 4
24.708382 -0.047659852 -0.43068522 6
11.96821 -2.1603858 -1.4868239 17
15.376288 -0.028700691 -1.339523 35
7.6445498 -1.3806914 -1.5003996 9
9.7754774 -0.01480872 -1.5445365 13
5.611526 -1.0160829 -1.5176321 10
6.646307 -0.003459349 -1.523986 13
39.523945 -2.7797272 9.8553858 36
91.363396 -23.233 13.244059 1
41.485641 -2.9466794 7.3198323 37
41.258751 -2.9595134 4.3439417 29
42.015259 -3.0284765 1.4697921 65
17.262222 -4.3893881 -1.2399603 5
10.280245 -2.6199238 -1.4823313 15
14.872158 -1.0759262 -1.5582938 14
6.8395581 -1.7504892 -1.4945529 10
8.6932173 -0.62977451 -1.5307099 12
5.1862812 -1.335901 -1.5247248 14
6.1562839 -0.44444779 -1.5290856 9
53.461548 0.014073035 10.375455 1
76.281853 -13.723617 6.7778845 13
46.68285 -0.04529823 5.7194123 68
24.341282 -0.047019139 1.2738571 17
20.64349 -3.7201338 -1.1011428 4
24.708372 -0.051972274 -0.43068522 6
11.96821 -2.1603858 -1.4868239 17
15.376284 -0.031384356 -1.339523 35
7.644309 -1.3820257 -1.5003996 9
9.7754736 -0.016514862 -1.5445365 13
5.6113482 -1.0170622 -1.5176321 10
6.646307 -0.003459349 -1.523986 13
39.813492 -2.9467595 9.9302769 35
42.517235 -10.975569 6.1664114 18
40.745354 -3.0442665 7.1910257 30
41.230282 -3.1094069 4.3421125 34
42.073635 -3.1877313 1.4722351 6
17.219456 -4.4457641 -1.2380468 5
10.25859 -2.6544795 -1.4805959 14
14.840842 -1.1283585 -1.5554289 14
6.835463 -1.776162 -1.4950731 10
8.6982164 -0.66219151 -1.5320122 10
5.1836743 -1.3555106 -1.5254135 12
6.1691265 -0.46810505 -1.5327119 9
40.255524 -0.13808894 7.8109016 6
74.227356 -13.635005 6.5996504 37
43.332485 -0.20119773 5.3086882 49
24.343441 -0.13624758 1.2739879 7
20.619894 -3.793963 -1.1006176 4
24.740509 -0.14271411 -0.43125242 8
11.94313 -2.2010865 -1.4846942 17
15.435837 -0.08806444 -1.3447419 28
7.6343656 -1.4091421 -1.4994472 9
9.7679396 -0.052307449 -1.5433618 12
5.607583 -1.0376221 -1.5176321 10
6.6389413 -0.027794674 -1.5223014 13
39.813492 -2.9467595 9.9302769 35
91.31118 -23.57637 13.24893 1
40.745354 -3.0442665 7.1910257 30
41.230282 -3.1094069 4.3421125 34
42.073635 -3.1877313 1.4722351 6
17.219456 -4.4457641 -1.2380468 5
10.25859 -2.6544795 -1.4805959 14
14.840842 -1.1283585 -1.5554289 14
6.835463 -1.776162 -1.4950731 10
8.6982164 -0.66219151 -1.5320122 10
5.1836743 -1.3555106 -1.5254135 12
6.1691265 -0.46810505 -1.5327119 9
53.402336 -0.18168558 10.364017 6
74.227356 -13.635005 6.5996504 37
46.697258 -0.21646668 5.7212381 1
24.343441 -0.13624758 1.2739879 7
20.619894 -3.793963 -1.1006176 4
24.740509 -0.14271411 -0.43125242 8
11.94313 -2.2010865 -1.4846942 17
15.435837 -0.08806444 -1.3447419 28
7.6343656 -1.4091421 -1.4994472 9
9.7679396 -0.052307449 -1.5433618 12
5.607583 -1.0376221 -1.5176321 10
6.6389413 -0.027794674 -1.5223014 13
39.783607 -3.0842175 9.9254446 23
42.500221 -11.129563 6.1695428 16
