# .PCD v0.7 - Point Cloud Data file format
VERSION 0.7
FIELDS x y z intensity
SIZE 4 4 4 4
TYPE F F F F
COUNT 1 1 1 1
WIDTH 1439
HEIGHT 1
VIEWPOINT 0 0 0 1 0 0 0
POINTS 1439
DATA ascii
9.2424383 -7.4523616 2.0851851 53
9.2581682 -7.4756942 1.2470245 51
14.913867 -12.049492 0.6683253 24
10.193304 -8.2393351 -0.45876873 18
10.171269 -8.2215462 -1.3663396 18
6.9293346 -5.6019034 -1.5650054 9
4.8405328 -3.9112747 -1.5417776 10
11.815263 -8.1838818 3.8365169 28
11.749838 -8.1689043 2.7723482 25
11.686773 -8.1462383 1.7423841 27
11.636201 -8.1260767 0.74199301 28
12.124444 -8.4699535 -0.25755596 29
11.559046 -8.0722456 -1.2279685 27
7.9883628 -5.5741873 -1.5390551 9
5.4849792 -3.8177862 -1.532409 8
9.2350864 -7.4358282 2.9430871 54
9.2424383 -7.4523616 2.0851851 53
9.2581682 -7.4756942 1.2470245 51
14.913867 -12.049492 0.6683253 24
10.193304 -8.2393351 -0.45876873 18
10.171273 -8.2215414 -1.3663396 18
6.9303122 -5.6006942 -1.5650054 9
4.8412161 -3.9104295 -1.5417776 10
11.81669 -8.181819 3.8365169 28
11.751263 -8.1668539 2.7723482 25
11.688195 -8.1441984 1.7423841 27
11.637619 -8.1240454 0.74199301 28
12.125921 -8.4678373 -0.25755596 29
11.560453 -8.0702295 -1.2279685 27
7.9893351 -5.572793 -1.5390551 9
5.4849792 -3.8177862 -1.532409 8
9.2373419 -7.4909334 2.9521463 54
9.2565107 -7.5171657 2.0942924 53
9.2532377 -7.525218 1.249899 49
9.4043112 -7.6534834 0.42219666 27
10.127663 -8.2449026 -0.45710269 18
10.1078 -8.2287455 -1.3616514 20
6.9145393 -5.6279588 -1.5658736 8
4.8237715 -3.9242442 -1.5405688 10
11.744473 -8.1926336 3.8223004 27
11.668391 -8.169836 2.75948 26
11.612971 -8.1521721 1.7353864 27
11.568338 -8.1359081 0.73937619 29
16.028461 -11.274716 -0.34145907 1
11.497573 -8.0861874 -1.2242718 28
7.9779177 -5.6063223 -1.5406212 10
5.4696236 -3.8355117 -1.5318474 9
9.2373419 -7.4909334 2.9521463 54
9.2565107 -7.5171657 2.0942924 53
9.2532377 -7.525218 1.249899 49
9.4043112 -7.6534834 0.42219666 27
10.127663 -8.2449026 -0.45710269 18
10.1078 -8.2287455 -1.3616514 20
6.9145393 -5.6279588 -1.5658736 8
4.8237715 -3.9242442 -1.5405688 10
11.744473 -8.1926336 3.8223004 27
11.668391 -8.169836 2.75948 26
11.612971 -8.1521721 1.7353864 27
11.568338 -8.1359081 0.73937619 29
16.028461 -11.274716 -0.34145907 1
11.497573 -8.0861874 -1.2242718 28
7.9779177 -5.6063223 -1.5406212 10
5.4696236 -3.8355117 -1.5318474 9
9.2425213 -7.5460682 2.9618096 50
9.2563133 -7.5680752 2.0999305 49
9.2686367 -7.5889325 1.2553868 51
9.33249 -7.6466308 0.42010266 75
10.07321 -8.2562723 -0.4558751 19
10.049685 -8.2370052 -1.3574841 18
6.8996477 -5.6539769 -1.5667419 8
4.8219948 -3.9494379 -1.5441952 10
11.67178 -8.1996193 3.8074377 29
11.603118 -8.1816273 2.7504249 28
11.547367 -8.1634331 1.7296059 26
11.492389 -8.1396103 0.73623604 28
16.015467 -11.34514 -0.34198266 1
11.417841 -8.0868616 -1.2186179 27
7.9592829 -5.6327472 -1.5406212 9
5.460856 -3.8564363 -1.5329704 9
9.2425213 -7.5460682 2.9618096 50
9.2563133 -7.5680752 2.0999305 49
9.2699604 -7.5873137 1.2553868 51
9.33249 -7.6466308 0.42010266 75
10.07321 -8.2562723 -0.4558751 19
10.049685 -8.2370052 -1.3574841 18
6.8996477 -5.6539769 -1.5667419 8
4.8219948 -3.9494379 -1.5441952 10
11.67178 -8.1996193 3.8074377 29
11.603118 -8.1816273 2.7504249 28
11.547367 -8.1634331 1.7296059 26
11.492389 -8.1396103 0.73623604 28
16.017443 -11.342348 -0.34198266 1
11.419251 -8.0848684 -1.2186179 27
7.9602656 -5.6313577 -1.5406212 9
5.4615293 -3.8554831 -1.5329704 9
9.2517319 -7.607553 2.973285 50
9.2678585 -7.6316352 2.1086042 53
9.2817945 -7.6512494 1.2606132 51
9.2999611 -7.6743913 0.41984093 71
9.9980803 -8.2532187 -0.4537707 18
9.9786816 -8.2372189 -1.3517541 20
6.8779702 -5.6764598 -1.5663077 8
4.8044353 -3.9631591 -1.5429864 10
11.595765 -8.2068424 3.791929 31
11.522457 -8.1851444 2.7380333 27
11.46826 -8.1677198 1.7219999 27
11.413088 -8.1434412 0.73296505 28
12.812966 -9.1416054 -0.27413589 3
11.354456 -8.0986605 -1.2147038 27
7.948606 -5.6648383 -1.5421873 10
5.4460511 -3.8731134 -1.532409 9
9.2517319 -7.607553 2.973285 50
9.2678585 -7.6316352 2.1086042 53
9.2804594 -7.6528687 1.2606132 51
9.2999611 -7.6743913 0.41984093 71
9.9980803 -8.2532187 -0.4537707 18
9.9786816 -8.2372189 -1.3517541 20
6.8779702 -5.6764598 -1.5663077 8
4.8044353 -3.9631591 -1.5429864 10
11.595765 -8.2068424 3.791929 31
11.522457 -8.1851444 2.7380333 27
11.46826 -8.1677198 1.7219999 27
11.413088 -8.1434412 0.73296505 28
16.199615 -11.560645 -0.34678209 1
11.353043 -8.1006422 -1.2147038 27
7.9476166 -5.6662254 -1.5421873 10
5.445375 -3.8740637 -1.532409 9
9.2592859 -7.6708107 2.98476 52
9.2720423 -7.6922717 2.115977 54
9.275301 -7.7058945 1.2637491 48
9.2948275 -7.7275891 0.42088789 62
9.9351025 -8.2626553 -0.45228001 18
9.9178324 -8.2483044 -1.3475869 18
6.8665872 -5.7094998 -1.5684785 7
4.7786808 -3.9714425 -1.53936 10
11.518408 -8.2156458 3.7764199 31
11.450465 -8.1973343 2.728025 28
11.395902 -8.179327 1.7156109 27
11.344642 -8.1575365 0.73047906 28
12.773716 -9.1878138 -0.27404863 8
11.27878 -8.1102257 -1.2099198 28
7.9388313 -5.7039561 -1.5445365 9
5.4251976 -3.8897421 -1.5307244 9
9.2592859 -7.6708107 2.98476 52
9.2720423 -7.6922717 2.115977 54
9.275301 -7.7058945 1.2637491 48
9.2948275 -7.7275891 0.42088789 62
9.9351025 -8.2626553 -0.45228001 18
9.9178286 -8.2483091 -1.3475869 18
6.8655901 -5.7106981 -1.5684785 7
4.7779875 -3.9722767 -1.53936 10
11.516974 -8.2176571 3.7764199 31
11.449034 -8.1993332 2.728025 28
11.394474 -8.1813164 1.7156109 27
11.343218 -8.1595173 0.73047906 28
12.772113 -9.1900425 -0.27404863 8
11.277365 -8.1121941 -1.2099198 28
7.9378357 -5.7053413 -1.5445365 9
5.4251976 -3.8897421 -1.5307244 9
9.2603989 -7.7263927 2.9938195 50
9.2734804 -7.7482653 2.1224823 48
9.2864876 -7.7701278 1.2689755 52
9.3041983 -7.7904568 0.42254564 53
9.6552553 -8.0871639 -0.44079328 24
9.8470364 -8.2477617 -1.341857 19
6.8437257 -5.733048 -1.5680442 8
4.7715344 -3.9951577 -1.5417776 10
11.445066 -8.2268114 3.7622032 34
11.380529 -8.2105427 2.718493 27
11.31758 -8.1861534 1.7083091 28
11.266137 -8.1639194 0.72733891 29
12.703518 -9.2081738 -0.27326325 9
11.202583 -8.1179132 -1.2049183 28
7.9238739 -5.7373562 -1.5457109 8
5.4194899 -3.9143558 -1.5329704 8
9.2603989 -7.7263927 2.9938195 50
9.2734804 -7.7482653 2.1224823 48
9.2864876 -7.7701278 1.2689755 52
9.3041983 -7.7904568 0.42254564 53
9.6552553 -8.0871639 -0.44079328 24
9.8470411 -8.2477579 -1.341857 19
6.8447266 -5.7318535 -1.5680442 8
4.7722316 -3.9943249 -1.5417776 10
11.446502 -8.2248144 3.7622032 34
11.381962 -8.2085562 2.718493 27
11.319011 -8.1841774 1.7083091 28
11.267562 -8.161953 0.72733891 29
12.705125 -9.2059555 -0.27326325 9
11.204 -8.1159573 -1.2049183 28
7.9248753 -5.7359729 -1.5457109 8
5.4194899 -3.9143558 -1.5329704 8
9.2681675 -7.78514 3.0046909 50
9.2778854 -7.804328 2.1294215 49
9.289197 -7.8249025 1.2728953 52
9.3031511 -7.8421969 0.42367986 52
9.3819571 -7.9114065 -0.42948189 51
9.7968235 -8.2611351 -1.3387314 19
6.8237991 -5.7529335 -1.5676101 8
4.7459707 -3.9991903 -1.5375469 14
11.380026 -8.2344255 3.7492795 26
11.305023 -8.2102194 2.706578 28
11.249672 -8.1910086 1.70192 28
11.19605 -8.1669188 0.72446042 29
12.66241 -9.2392006 -0.27300146 18
11.128723 -8.117857 -1.1996994 27
7.9137955 -5.7680354 -1.5472771 7
5.4025373 -3.9294429 -1.5318474 9
9.2681675 -7.78514 3.0046909 50
9.2778854 -7.804328 2.1294215 49
9.289197 -7.8249025 1.2728953 52
9.3031511 -7.8421969 0.42367986 52
9.3819571 -7.9114065 -0.42948189 51
9.7968235 -8.2611351 -1.3387314 19
6.8237991 -5.7529335 -1.5676101 8
4.7459707 -3.9991903 -1.5375469 14
11.380026 -8.2344255 3.7492795 26
11.305023 -8.2102194 2.706578 28
11.249672 -8.1910086 1.70192 28
11.19605 -8.1669188 0.72446042 29
12.66241 -9.2392006 -0.27300146 18
11.128723 -8.117857 -1.1996994 27
7.9137955 -5.7680354 -1.5472771 7
5.4025373 -3.9294429 -1.5318474 9
9.2779837 -7.8487744 3.0167701 53
9.2938013 -7.8732624 2.1393962 51
9.2978544 -7.8878345 1.2778604 52
9.3119144 -7.9053397 0.42533761 51
9.3295231 -7.9230862 -0.42834198 50
9.7357035 -8.2679262 -1.3343037 18
6.8093071 -5.7814965 -1.5689125 8
4.7171807 -4.0031805 -1.5327119 13
11.296554 -8.2342854 3.7311854 27
11.236672 -8.2206631 2.6970463 28
11.182985 -8.2023563 1.6961395 29
11.127227 -8.1763983 0.72184366 29
12.609936 -9.2685461 -0.27256516 16
11.070207 -8.1345434 -1.1964376 28
7.9015756 -5.8014655 -1.548843 8
5.3907542 -3.9497156 -1.532409 8
9.2779837 -7.8487744 3.0167701 53
9.2938013 -7.8732624 2.1393962 51
9.2978544 -7.8878345 1.2778604 52
9.3119144 -7.9053397 0.42533761 51
9.3295231 -7.9230862 -0.42834198 50
9.7357035 -8.2679262 -1.3343037 18
6.8093071 -5.7814965 -1.5689125 8
4.7171807 -4.0031805 -1.5327119 13
11.296554 -8.2342854 3.7311854 27
11.236672 -8.2206631 2.6970463 28
11.182985 -8.2023563 1.6961395 29
11.127227 -8.1763983 0.72184366 29
12.609936 -9.2685461 -0.27256516 16
11.070207 -8.1345434 -1.1964376 28
7.9015756 -5.8014655 -1.548843 8
5.3907542 -3.9497156 -1.532409 8
9.2837734 -7.9094253 3.0276411 55
9.2962341 -7.9312191 2.1463354 52
9.2967319 -7.9428477 1.2815189 50
9.318449 -7.9670157 0.42690808 51
9.3226986 -7.9734635 -0.42930651 49
9.6689873 -8.2695436 -1.3290946 18
6.7853413 -5.8020315 -1.5680442 8
4.6939549 -4.0117445 -1.52969 12
11.240483 -8.2536659 3.7221386 25
11.156529 -8.2219982 2.6846547 26
11.108371 -8.2074423 1.689142 28
11.058475 -8.1854963 0.71922684 29
12.531291 -9.2783089 -0.27156162 9
10.995693 -8.1390705 -1.1914361 29
7.8792911 -5.8275447 -1.5484515 8
5.3710513 -3.9641731 -1.5307244 8
9.2837734 -7.9094253 3.0276411 55
9.2962341 -7.9312191 2.1463354 52
9.2967319 -7.9428477 1.2815189 50
9.318449 -7.9670157 0.42690808 51
9.3226986 -7.9734635 -0.42930651 49
9.6689873 -8.2695436 -1.3290946 18
6.7853413 -5.8020315 -1.5680442 8
4.6939549 -4.0117445 -1.52969 12
11.240483 -8.2536659 3.7221386 25
11.156529 -8.2219982 2.6846547 26
11.108371 -8.2074423 1.689142 28
11.058475 -8.1854963 0.71922684 29
12.531291 -9.2783089 -0.27156162 9
10.995693 -8.1390705 -1.1914361 29
7.8792911 -5.8275447 -1.5484515 8
5.3710513 -3.9641731 -1.5307244 8
9.2823381 -7.9670949 3.0367005 51
9.2969809 -7.990911 2.1532743 51
9.309021 -8.0125446 1.287268 54
9.3194809 -8.0272007 0.42830405 53
9.3426304 -8.0499744 -0.43158633 49
9.5952845 -8.2676058 -1.3231043 22
6.7621655 -5.8252559 -1.5676101 7
4.6645093 -4.016264 -1.5248549 13
9.2275286 -6.8288126 3.0623639 39
11.090847 -8.2365074 2.6760762 28
11.036407 -8.2169952 1.6827528 28
10.990367 -8.1976233 0.71674091 29
12.513232 -9.3361311 -0.2719107 5
10.927847 -8.1510382 -1.1873044 27
7.8638206 -5.8608084 -1.5496261 8
5.3643084 -3.9896419 -1.5329704 8
9.2823381 -7.9670949 3.0367005 51
9.2969809 -7.990911 2.1532743 51
9.309021 -8.0125446 1.287268 54
9.3194809 -8.0272007 0.42830405 53
9.3426304 -8.0499744 -0.43158633 49
9.5952797 -8.2676105 -1.3231043 22
6.7611485 -5.826436 -1.5676101 7
4.6638083 -4.0170784 -1.5248549 13
9.2263374 -6.8304234 3.0623639 39
11.089409 -8.2384434 2.6760762 28
11.034973 -8.2189217 1.6827528 28
10.988936 -8.199542 0.71674091 29
15.663283 -11.689218 -0.34054282 2
10.926425 -8.1529455 -1.1873044 27
7.8627973 -5.8621812 -1.5496261 8
5.3643084 -3.9896419 -1.5329704 8
9.2980928 -8.0343056 3.0505915 51
9.3058109 -8.0523005 2.1615145 48
9.316227 -8.0726728 1.2919718 52
9.334343 -8.0940638 0.43022352 52
9.3423109 -8.1038275 -0.43281394 46
9.4325581 -8.1821003 -1.3043516 46
6.7399287 -5.8472109 -1.567176 8
4.639462 -4.0229907 -1.5212287 13
9.1900787 -6.8508835 3.0578403 54
11.026648 -8.2487221 2.6674974 28
10.963973 -8.2227306 1.6760596 28
10.91976 -8.2044592 0.71399325 29
15.434564 -11.598483 -0.33639786 30
10.861487 -8.1607218 -1.1831728 17
7.857141 -5.8985925 -1.5523666 7
5.3510485 -4.0074086 -1.5329704 8
9.2980928 -8.0343056 3.0505915 51
9.3058109 -8.0523005 2.1615145 48
9.3176355 -8.0710468 1.2919718 52
9.334343 -8.0940638 0.43022352 52
9.3423109 -8.1038275 -0.43281394 46
9.4325628 -8.1820955 -1.3043516 46
6.7409492 -5.846034 -1.567176 8
4.6401639 -4.022181 -1.5212287 13
9.1912746 -6.8492789 3.0578403 54
11.028087 -8.2467976 2.6674974 28
10.965409 -8.2208166 1.6760596 28
10.921191 -8.2025537 0.71399325 29
15.438607 -11.5931 -0.33639786 30
10.864336 -8.15693 -1.1831728 17
7.8592 -5.8958502 -1.5523666 7
5.351748 -4.006475 -1.5329704 8
9.1487217 -6.8698764 3.0520246 57
10.948773 -8.2502556 2.6555824 26
10.893613 -8.2295542 1.6696705 27
10.855213 -8.2154198 0.71163815 23
15.388039 -11.643576 -0.3362233 38
10.794633 -8.1666555 -1.1788237 31
7.8414793 -5.9275918 -1.5531497 8
5.3467569 -4.033392 -1.535778 9
9.1475229 -6.8714728 3.0520246 57
10.947333 -8.2521667 2.6555824 26
10.892178 -8.2314558 1.6696705 27
10.853779 -8.2173138 0.71163815 23
15.383978 -11.648943 -0.3362233 38
10.791781 -8.1704235 -1.1788237 31
7.8394098 -5.9303288 -1.5531497 8
5.3460526 -4.0343246 -1.535778 9
9.1543045 -6.9266648 3.0623639 55
10.887181 -8.2665939 2.6479571 26
10.835729 -8.248394 1.6654111 15
10.775387 -8.2173185 0.70836717 31
15.341232 -11.701056 -0.33617967 23
10.721598 -8.176343 -1.1742572 30
7.8225904 -5.9606485 -1.5539328 7
5.3358188 -4.0559072 -1.5369011 9
9.1555138 -6.9250669 3.0623639 55
10.888623 -8.2646942 2.6479571 26
10.837169 -8.2465019 1.6654111 15
10.77682 -8.2154388 0.70836717 31
15.345313 -11.695704 -0.33617967 23
10.724451 -8.1726007 -1.1742572 30
7.8246703 -5.9579172 -1.5539328 7
5.3365264 -4.054976 -1.5369011 9
9.1613264 -6.9773269 3.0720568 53
9.2696352 -7.0852671 2.2590561 43
10.760508 -8.2446804 1.6578052 37
10.721785 -8.2298584 0.7065354 31
15.358011 -11.786081 -0.3373141 17
10.657763 -8.1778088 -1.169908 29
7.8068309 -5.9853344 -1.5543244 9
5.324986 -4.0741291 -1.5374626 9
9.1613264 -6.9773269 3.0720568 53
9.2696352 -7.0852671 2.2590561 43
10.760508 -8.2446804 1.6578052 37
10.721785 -8.2298584 0.7065354 31
15.358011 -11.786081 -0.3373141 17
10.657763 -8.1778088 -1.169908 29
7.8068309 -5.9853344 -1.5543244 9
5.324986 -4.0741291 -1.5374626 9
9.1618328 -7.0283628 3.0804574 54
9.2234507 -7.1011209 2.2538137 54
10.690398 -8.2503691 1.6514162 30
10.641625 -8.2275467 0.70313352 29
15.366227 -11.877825 -0.33840489 26
10.597613 -8.1906052 -1.1664288 29
7.7878451 -6.0140562 -1.5547159 10
5.3107324 -4.0926919 -1.5374626 9
9.1618328 -7.0283628 3.0804574 54
9.2234507 -7.1011209 2.2538137 54
10.690398 -8.2503691 1.6514162 30
10.641625 -8.2275467 0.70313352 29
15.364157 -11.880503 -0.33840489 26
10.596185 -8.1924543 -1.1664288 29
7.7867956 -6.0154152 -1.5547159 10
5.3100181 -4.0936189 -1.5374626 9
9.173564 -7.0883422 3.0927355 55
9.1889067 -7.1257572 2.2514307 54
10.628221 -8.2617569 1.646244 29
10.585258 -8.2431784 0.70130175 29
15.379792 -11.978589 -0.33967018 34
10.522317 -8.1942139 -1.1614273 30
7.7618513 -6.0395288 -1.5539328 10
5.2899208 -4.1076508 -1.535778 8
9.173564 -7.0883422 3.0927355 55
9.1889067 -7.1257572 2.2514307 54
10.628221 -8.2617569 1.646244 29
10.585258 -8.2431784 0.70130175 29
15.379792 -11.978589 -0.33967018 34
10.522317 -8.1942139 -1.1614273 30
7.7618513 -6.0395288 -1.5539328 10
5.2899208 -4.1076508 -1.535778 8
9.1723032 -7.1411948 3.101136 52
9.1898088 -7.180532 2.2581029 51
10.552925 -8.2654791 1.6392465 29
10.517646 -8.2526512 0.69881582 30
12.680649 -9.9522371 -0.28076786 14
10.464774 -8.2112103 -1.1583829 30
7.7435508 -6.0709825 -1.5547159 12
5.2786694 -4.1300116 -1.5369011 8
9.1710567 -7.1427956 3.101136 52
9.1885557 -7.1821361 2.2581029 51
10.551482 -8.2673206 1.6392465 29
10.516205 -8.2544861 0.69881582 30
15.367117 -12.063787 -0.34041193 1
10.463341 -8.2130356 -1.1583829 30
7.7424912 -6.0723338 -1.5547159 12
5.2786694 -4.1300116 -1.5369011 8
9.1764793 -7.1986017 3.1114752 53
9.1885052 -7.2338915 2.2642987 53
9.3320675 -7.3652577 1.4533558 41
10.448148 -8.260191 0.69619906 29
12.198915 -9.6468201 -0.27086353 4
10.399432 -8.2217197 -1.1544688 31
7.7173715 -6.0962634 -1.5539328 12
5.2661352 -4.1499186 -1.5374626 9
9.1777353 -7.197 3.1114752 53
9.1897678 -7.2322874 2.2642987 53
9.333354 -7.3636289 1.4533558 41
10.449589 -8.2583666 0.69619906 29
15.303491 -12.096086 -0.33988836 8
10.400867 -8.2199039 -1.1544688 31
7.7184348 -6.0949168 -1.5539328 12
5.2661352 -4.1499186 -1.5374626 9
9.1803637 -7.2483354 3.120522 52
9.204216 -7.29319 2.2738307 52
9.2544622 -7.3513427 1.444837 54
10.394789 -8.2712212 0.69436729 31
12.090302 -9.6228552 -0.26911828 5
10.342361 -8.2295494 -1.1509895 31
7.7117157 -6.1312284 -1.5566734 12
5.2485251 -4.1643333 -1.5363395 9
9.1803637 -7.2483354 3.120522 52
9.204216 -7.29319 2.2738307 52
9.2544622 -7.3513427 1.444837 54
10.394789 -8.2712212 0.69436729 31
15.206564 -12.101643 -0.33862305 7
10.342361 -8.2295494 -1.1509895 31
7.7117157 -6.1312284 -1.5566734 12
5.2485251 -4.1643333 -1.5363395 9
9.1852608 -7.3043761 3.1308615 55
9.2055655 -7.3466959 2.280503 50
9.2248678 -7.3805032 1.4442285 53
10.321033 -8.2715607 0.69135797 31
12.942291 -10.374541 -0.28892693 2
10.272748 -8.2329063 -1.1464229 21
7.6902666 -6.1581101 -1.5566734 12
5.2358618 -4.1841483 -1.5369011 9
9.1852608 -7.3043761 3.1308615 55
9.2055655 -7.3466959 2.280503 50
9.2248678 -7.3805032 1.4442285 53
10.321033 -8.2715607 0.69135797 31
15.099852 -12.103073 -0.33718321 15
10.272748 -8.2329063 -1.1464229 21
7.6902666 -6.1581101 -1.5566734 12
5.2358618 -4.1841483 -1.5369011 9
9.1980181 -7.3696885 3.1444318 54
9.2168388 -7.411129 2.290035 53
9.2209454 -7.4329429 1.4478794 53
10.24596 -8.2732754 0.68834865 23
14.942578 -12.067275 -0.33465257 27
10.211493 -8.2454786 -1.1429436 27
7.675334 -6.1924529 -1.5582395 10
5.2223897 -4.2048368 -1.5374626 9
9.1967306 -7.371294 3.1444318 54
9.2155447 -7.4127369 2.290035 53
9.2196484 -7.4345527 1.4478794 53
10.244516 -8.2750626 0.68834865 23
14.940473 -12.069884 -0.33465257 27
10.210053 -8.2472601 -1.1429436 27
7.674253 -6.1937923 -1.5582395 10
5.2223897 -4.2048368 -1.5374626 9
9.1991405 -7.426095 3.1541247 53
9.2201338 -7.4695663 2.2976604 53
9.2360296 -7.5010896 1.4545727 55
9.3903275 -7.6398792 0.63261086 39
14.838132 -12.073071 -0.33330002 26
10.142553 -8.2514296 -1.1385945 17
7.6640863 -6.2298832 -1.5605886 10
5.2095733 -4.2245746 -1.5380242 9
9.2004366 -7.424489 3.1541247 53
9.2214375 -7.467957 2.2976604 53
9.237339 -7.4994779 1.4545727 55
9.3916616 -7.6382403 0.63261086 39
14.840239 -12.070481 -0.33330002 26
10.143993 -8.2496595 -1.1385945 17
7.6651735 -6.2285447 -1.5605886 10
5.2095733 -4.2245746 -1.5380242 9
9.2057657 -7.4793115 3.164464 54
9.2232599 -7.5201964 2.3043327 53
9.2412462 -7.5536132 1.4591362 53
9.2928562 -7.6092658 0.62763894 54
14.745971 -12.075298 -0.33207834 25
10.087667 -8.2595949 -1.1353327 18
7.6444769 -6.2539291 -1.5605886 10
5.2012 -4.2464447 -1.5397089 9
9.2057657 -7.4793115 3.164464 54
9.2232599 -7.5201964 2.3043327 53
9.2412462 -7.5536132 1.4591362 53
9.2928562 -7.6092658 0.62763894 54
14.748074 -12.072727 -0.33207834 25
10.089108 -8.2578354 -1.1353327 18
7.6455684 -6.2525949 -1.5605886 10
5.201941 -4.2455373 -1.5397089 9
9.2132549 -7.5389161 3.1760957 51
9.2348967 -7.5834804 2.3138647 52
9.2454863 -7.6110477 1.4640042 53
9.2585316 -7.6353073 0.62711561 53
14.659545 -12.085984 -0.33103117 23
10.021776 -8.2613325 -1.1309836 18
7.6351352 -6.2886577 -1.5629376 13
5.190855 -4.2667603 -1.5408318 9
9.2132549 -7.5389161 3.1760957 51
9.2348967 -7.5834804 2.3138647 52
9.2454863 -7.6110477 1.4640042 53
9.2585316 -7.6353073 0.62711561 53
14.657439 -12.088537 -0.33103117 23
10.020334 -8.2630816 -1.1309836 18
7.634038 -6.2899904 -1.5629376 13
5.1901107 -4.2676659 -1.5408318 9
9.2223053 -7.6001997 3.1883738 52
9.2367468 -7.6391211 2.3210137 51
9.2513456 -7.6701851 1.4691762 52
9.2567978 -7.6883063 0.62881649 51
14.574766 -12.106097 -0.3301149 19
9.9511824 -8.2646065 -1.126417 17
7.6101341 -6.3150239 -1.5625463 10
5.173305 -4.2842045 -1.5402703 9
9.2209787 -7.601809 3.1883738 52
9.2354126 -7.6407323 2.3210137 51
9.2500076 -7.6717997 1.4691762 52
9.255456 -7.6899219 0.62881649 51
14.572652 -12.108641 -0.3301149 19
9.9497404 -8.2663441 -1.126417 17
7.6090317 -6.3163519 -1.5625463 10
5.173305 -4.2842045 -1.5402703 9
9.2209301 -7.658689 3.1980667 53
9.2412901 -7.7028012 2.3295922 53
9.2503986 -7.7295074 1.4737399 51
9.2597637 -7.7510233 0.63104075 50
9.4096203 -7.8791604 -0.21361917 17
9.8830795 -8.272397 -1.1222854 16
7.5801449 -6.339448 -1.5613716 16
5.1519527 -4.2984586 -1.5385858 9
9.2209301 -7.658689 3.1980667 53
9.2412901 -7.7028012 2.3295922 53
9.2503986 -7.7295074 1.4737399 51
9.2597637 -7.7510233 0.63104075 50
14.656616 -12.269443 -0.33303824 1
9.8830795 -8.272397 -1.1222854 16
7.5801449 -6.339448 -1.5613716 16
5.1519527 -4.2984586 -1.5385858 9
9.2330542 -7.7233543 3.2116373 48
9.2519503 -7.7665553 2.339124 54
9.2575464 -7.7904959 1.4792161 53
9.265111 -7.8106422 0.63326502 51
9.3476543 -7.8829651 -0.21283381 74
9.82938 -8.285985 -1.1194584 24
7.5787525 -6.3833575 -1.5656782 16
5.138783 -4.3179822 -1.5391473 8
9.2344017 -7.7217431 3.2116373 48
9.2533054 -7.7649398 2.339124 54
9.2589054 -7.7888803 1.4792161 53
9.2664738 -7.8090248 0.63326502 51
9.3490305 -7.8813338 -0.21283381 74
9.8308268 -8.2842693 -1.1194584 24
7.5798669 -6.3820348 -1.5656782 16
5.138783 -4.3179822 -1.5391473 8
9.2383156 -7.7771974 3.2219765 51
9.2500086 -7.81458 2.3448434 52
9.2728033 -7.8532033 1.4856051 51
9.278614 -7.8719993 0.63588184 54
9.3018723 -7.8945088 -0.21235386 66
9.7653065 -8.2846136 -1.1151093 25
7.5586619 -6.407135 -1.5656782 16
5.126297 -4.3365712 -1.5397089 8
9.2383156 -7.7771974 3.2219765 51
9.2500086 -7.81458 2.3448434 52
9.2728033 -7.8532033 1.4856051 51
9.278614 -7.8719993 0.63588184 54
9.3032465 -7.8928885 -0.21235386 66
9.7667532 -8.2829103 -1.1151093 25
7.5597796 -6.4058156 -1.5656782 16
5.1270537 -4.3356762 -1.5397089 8
9.2479649 -7.8406177 3.2349002 50
9.2563305 -7.8754334 2.3534219 52
9.2679977 -7.904839 1.4892561 51
9.2776604 -7.9270334 0.63771361 54
9.3060551 -7.9512839 -0.21305196 63
9.696104 -8.2813826 -1.1103253 23
7.5223413 -6.4193501 -1.5625463 18
5.1118884 -4.3535471 -1.5397089 8
9.2479649 -7.8406177 3.2349002 50
9.2563305 -7.8754334 2.3534219 52
9.2679977 -7.904839 1.4892561 51
9.2776604 -7.9270334 0.63771361 54
9.3046713 -7.9529042 -0.21305196 63
9.6946583 -8.2830744 -1.1103253 23
7.5212212 -6.4206624 -1.5625463 18
5.1111279 -4.3544393 -1.5397089 8
9.2467203 -7.8979783 3.2445934 52
9.2646818 -7.941236 2.3629537 51
9.2784986 -7.9727011 1.4956452 53
9.2882929 -7.9951744 0.64046127 54
9.3019857 -8.009778 -0.2136628 51
9.6113663 -8.273078 -1.1042366 25
7.4882736 -6.4401407 -1.5605886 14
5.0877352 -4.3668013 -1.5374626 10
9.2453413 -7.8995919 3.2445934 52
9.2632952 -7.9428535 2.3629537 51
9.2771072 -7.9743199 1.4956452 53
9.2868967 -7.9967947 0.64046127 54
9.3005877 -8.0114021 -0.2136628 51
9.6099215 -8.2747545 -1.1042366 25
7.4871497 -6.4414473 -1.5605886 14
5.0877352 -4.3668013 -1.5374626 10
9.2561655 -7.9648809 3.2581637 51
9.2615261 -7.9975848 2.369626 49
9.2829971 -8.0358753 1.5011215 54
9.2928867 -8.0585918 0.64281631 53
9.3084536 -8.0749264 -0.2144918 64
9.398407 -8.1500444 -1.0831435 59
7.4590182 -6.4626951 -1.559414 23
5.0779939 -4.3893099 -1.5391473 9
9.257556 -7.9632654 3.2581637 51
9.2629223 -7.9959688 2.369626 49
9.284399 -8.034255 1.5011215 54
9.2942934 -8.0569696 0.64281631 53
9.3112659 -8.071681 -0.2144918 64
9.4012508 -8.1467628 -1.0831435 59
7.4612737 -6.4600906 -1.559414 23
5.0787601 -4.3884234 -1.5391473 9
9.2566652 -8.0160446 3.2672105 52
9.2752695 -8.0604334 2.3796346 52
9.2566652 -8.0160446 3.2672105 52
9.2752695 -8.0604334 2.3796346 52
2.7730527 4.6070013 -1.5309229 7
2.7722485 4.6074853 -1.5309229 7
17.401735 28.843946 7.1468086 37
21.724281 36.063503 5.9120727 23
25.773304 42.817368 3.4834671 1
16.260777 27.027758 0 16
8.4615097 14.051466 -1.141675 5
5.1337309 8.5149899 -1.3889698 4
3.6161239 5.9837561 -1.479987 6
2.7833233 4.5895643 -1.5281682 8
17.401735 28.843946 7.1468086 37
21.724281 36.063503 5.9120727 23
25.773304 42.817368 3.4834671 1
22.015276 36.589733 0 2
8.4639626 14.049989 -1.141675 5
5.1352172 8.5140944 -1.3889698 4
3.6171689 5.9831247 -1.479987 6
2.7841244 4.5890784 -1.5281682 8
17.476826 28.729832 7.1343436 31
21.929585 36.10424 5.9319048 25
22.23135 36.629715 2.9863012 6
16.363619 26.97439 0 23
8.5192871 14.025265 -1.1421968 5
5.1651001 8.4931002 -1.3886226 4
3.6365252 5.9656525 -1.4789467 6
2.7984145 4.5747457 -1.526791 9
17.476826 28.729832 7.1343436 31
21.929585 36.10424 5.9319048 25
22.23135 36.629715 2.9863012 6
22.247803 36.671227 0 1
8.5192871 14.025265 -1.1421968 5
5.1651001 8.4931002 -1.3886226 4
3.6365252 5.9656525 -1.4789467 6
2.7984145 4.5747457 -1.526791 9
17.516916 28.570671 7.1099343 28
22.113657 36.122482 5.9475622 23
22.377298 36.581676 2.9887364 18
16.492897 26.974689 0 3
8.5747051 14.006076 -1.1430666 6
5.199894 8.4834604 -1.390011 5
3.6547649 5.9487572 -1.4779062 7
2.8168914 4.5690384 -1.5281682 10
17.516916 28.570671 7.1099343 28
22.113657 36.122482 5.9475622 23
22.377298 36.581676 2.9887364 18
22.306543 36.480312 0 28
8.5722618 14.007571 -1.1430666 6
5.199894 8.4834604 -1.390011 5
3.6547649 5.9487572 -1.4779062 7
2.8168914 4.5690384 -1.5281682 10
17.639843 28.558197 7.1213598 31
22.307407 36.169048 5.9673939 16
22.574385 36.630405 2.998826 4
8.6147375 13.972702 -1.1425447 5
5.2253942 8.4619589 -1.3893168 5
3.6731837 5.9345264 -1.477386 8
2.8320274 4.5596724 -1.5281682 14
17.639843 28.558197 7.1213598 31
22.307407 36.169048 5.9673939 16
22.574385 36.630405 2.998826 4
22.504768 36.531715 0 28
8.6147375 13.972702 -1.1425447 5
5.2239175 8.4628706 -1.3893168 5
3.6721478 5.9351673 -1.477386 8
2.8312316 4.5601664 -1.5281682 14
17.838957 28.656294 7.1613503 16
22.518488 36.227631 5.9900098 1
22.791601 36.695435 3.0106549 1
22.618963 36.431698 0 36
8.6647739 13.944663 -1.1427187 5
5.2652044 8.4634991 -1.3924404 5
3.6876624 5.9140162 -1.4753052 7
2.8433032 4.544147 -1.5261022 15
17.838957 28.656294 7.1613503 16
22.518488 36.227631 5.9900098 1
22.791601 36.695435 3.0106549 1
22.618963 36.431698 0 36
8.6647739 13.944663 -1.1427187 5
5.2666812 8.4625797 -1.3924404 5
3.6886945 5.9133725 -1.4753052 7
2.8440964 4.5436506 -1.5261022 15
18.015379 28.70463 7.1899147 24
19.193102 30.628019 5.0749469 1
23.006697 36.740582 3.0212662 2
22.862452 36.524426 0 38
8.7105284 13.904359 -1.142023 5
5.2963467 8.441123 -1.3920934 5
3.7129495 5.9039516 -1.4763455 8
2.8684359 4.5453844 -1.5302342 15
18.015379 28.70463 7.1899147 24
19.193102 30.628019 5.0749469 1
23.006697 36.740582 3.0212662 2
22.862452 36.524426 0 38
8.7129545 13.902838 -1.142023 5
5.2963467 8.441123 -1.3920934 5
3.7129495 5.9039516 -1.4763455 8
2.8684359 4.5453844 -1.5302342 15
18.065784 28.56304 7.1701794 22
19.346169 30.634089 5.0871239 4
23.0445 36.531078 0 1
8.7654285 13.878666 -1.1425447 5
5.3231311 8.4183998 -1.3913993 5
3.7348454 5.8930192 -1.4768658 12
2.8829935 4.5333176 -1.5295455 16
18.065784 28.56304 7.1701794 22
23.132805 36.62859 6.0836034 16
23.157434 36.695904 3.0242233 81
23.0445 36.531078 0 1
8.7630062 13.880195 -1.1425447 5
5.3216615 8.4193287 -1.3913993 5
3.7338171 5.893671 -1.4768658 12
2.8822021 4.5338202 -1.5295455 16
18.216917 28.59165 7.1925111 20
9.8064852 15.418663 2.5632203 2
9.8546038 15.506194 1.2790978 7
19.027067 29.943363 0 41
8.8076477 13.848955 -1.1423708 5
5.3562045 8.4120741 -1.3931346 4
3.7533407 5.8812571 -1.4768658 9
2.8998163 4.5282831 -1.5309229 16
18.216917 28.59165 7.1925111 20
18.372423 28.880045 4.8056464 9
23.299067 36.650478 3.0268328 4
19.027067 29.943363 0 41
8.8076477 13.848955 -1.1423708 5
5.3562045 8.4120741 -1.3931346 4
3.7533407 5.8812571 -1.4768658 9
2.8998163 4.5282831 -1.5309229 16
9.8894396 15.406252 3.8806012 14
9.9003363 15.446858 2.5736585 42
9.9261627 15.498999 1.2813592 255
9.9165287 15.489892 0 8
8.8559351 13.818126 -1.1423708 5
5.3855362 8.3933258 -1.3931346 4
3.7791429 5.8763428 -1.4789467 9
2.9103863 4.5100603 -1.5281682 16
18.407793 28.669863 7.2283463 1
18.673576 29.128336 4.8578367 39
9.9261627 15.498999 1.2813592 255
19.051914 29.752556 0 1
8.8559351 13.818126 -1.1423708 5
5.387001 8.3923864 -1.3931346 4
3.7801685 5.8756838 -1.4789467 9
2.9111736 4.509552 -1.5281682 16
9.8953457 15.286064 3.859827 19
9.8614378 15.256971 2.5482593 92
9.9246912 15.366511 1.2735312 255
10.007131 15.500001 0 146
8.9129906 13.790301 -1.1428926 5
5.4259167 8.3820286 -1.3948699 4
3.8040338 5.8631754 -1.4794668 14
2.9310932 4.5023675 -1.5295455 17
9.8953457 15.286064 3.859827 19
9.8614378 15.256971 2.5482593 92
9.9246912 15.366511 1.2735312 255
10.009835 15.498255 0 146
8.9153967 13.788746 -1.1428926 5
5.4259167 8.3820286 -1.3948699 4
3.8040338 5.8631754 -1.4794668 14
2.9318788 4.5018554 -1.5295455 17
9.9112415 15.199915 3.8463237 27
9.871439 15.161954 2.5378211 105
9.9320593 15.266631 1.2679646 254
10.00526 15.37907 0 237
8.9569893 13.752838 -1.1423708 5
5.4550357 8.3660631 -1.3952171 5
3.8274724 5.8566675 -1.4810275 14
2.9494312 4.4961247 -1.5309229 17
9.9112415 15.199915 3.8463237 27
9.871439 15.161954 2.5378211 105
9.9320593 15.266631 1.2679646 254
10.002576 15.380816 0 237
8.9545879 13.7544 -1.1423708 5
5.4535756 8.3670149 -1.3952171 5
3.8264501 5.8573351 -1.4810275 14
2.9478614 4.4971542 -1.5309229 17
9.9293118 15.112094 3.8328204 27
9.8903427 15.075664 2.5291228 118
9.9469919 15.173477 1.2630939 255
10.028789 15.303992 0 226
9.009388 13.733484 -1.1432406 5
5.4786682 8.3417206 -1.3941758 5
3.846873 5.8439431 -1.4810275 14
2.9622154 4.4848328 -1.5302342 17
9.9293118 15.112094 3.8328204 27
9.8903427 15.075664 2.5291228 118
9.9469919 15.173477 1.2630939 255
10.028789 15.303992 0 226
9.009388 13.733484 -1.1432406 5
5.4801245 8.340764 -1.3941758 5
3.847893 5.8432713 -1.4810275 14
2.9629982 4.4843159 -1.5302342 17
9.9765291 15.06337 3.8297045 8
9.9769497 15.0868 2.5371253 39
9.9667768 15.082827 1.258571 255
10.043462 15.204562 0 255
9.0417728 13.673331 -1.1409791 5
5.5147619 8.3268137 -1.3952171 5
3.8706374 5.8311658 -1.4815477 14
2.9834154 4.479423 -1.5323004 17
18.446089 27.844936 7.0860443 1
9.9769497 15.0868 2.5371253 39
9.9667768 15.082827 1.258571 255
10.043462 15.204562 0 255
9.0417728 13.673331 -1.1409791 5
5.5133085 8.327776 -1.3952171 5
3.8696196 5.831841 -1.4815477 14
2.9826334 4.4799438 -1.5323004 17
18.531536 27.773441 7.0834475 22
10.013197 15.033031 2.5336461 1
10.031943 15.072526 1.2604846 164
10.077203 15.146199 0 253
9.1064281 13.672328 -1.1434145 5
5.5436425 8.3135653 -1.3959111 5
3.8902974 5.8210092 -1.4820679 14
2.9961331 4.4680333 -1.5316117 17
18.531536 27.773441 7.0834475 22
10.013197 15.033031 2.5336461 1
10.031943 15.072526 1.2604846 164
10.077203 15.146199 0 253
9.1064281 13.672328 -1.1434145 5
5.5436425 8.3135653 -1.3959111 5
3.8902974 5.8210092 -1.4820679 14
2.9961331 4.4680333 -1.5316117 17
18.63656 27.720762 7.0865636 27
10.059485 15.00014 1.2573533 108
10.132798 15.115085 0 159
9.1429768 13.623894 -1.142023 5
5.5726285 8.2941637 -1.3959111 5
3.9078584 5.8033385 -1.4810275 13
3.0117111 4.4575481 -1.5316117 17
18.63656 27.720762 7.0865636 27
10.059485 15.00014 1.2573533 108
10.132798 15.115085 0 159
9.1429768 13.623894 -1.142023 5
5.5740762 8.293191 -1.3959111 5
3.9088709 5.8026567 -1.4810275 13
3.0124893 4.4570222 -1.5316117 17
18.784607 27.741821 7.1078572 23
10.175867 15.07104 0 43
9.1908989 13.597631 -1.1423708 5
5.6015468 8.2746611 -1.3959111 4
3.9322147 5.7957301 -1.4825881 14
3.0286064 4.4489937 -1.5323004 17
18.784607 27.741821 7.1078572 23
19.28055 28.548985 0 175
9.1908989 13.597631 -1.1423708 5
5.6001019 8.2756386 -1.3959111 4
3.9312027 5.7964163 -1.4825881 14
3.0278301 4.4495215 -1.5323004 17
19.024689 27.88616 7.1618695 23
19.385715 28.489779 0 31
9.2354984 13.561344 -1.142023 5
5.6317468 8.2601309 -1.3966053 4
3.9514122 5.7826586 -1.4825881 15
3.0419829 4.4369445 -1.5316117 16
19.024689 27.88616 7.1618695 23
19.385715 28.489779 0 31
9.2354984 13.561344 -1.142023 5
5.6331882 8.2591486 -1.3966053 4
3.9524217 5.7819695 -1.4825881 15
3.042757 4.4364138 -1.5316117 16
19.338045 28.133936 7.2428885 26
19.510492 28.459045 0 20
9.2898369 13.539303 -1.1428926 5
5.661984 8.2394333 -1.3966053 5
3.9739683 5.7701502 -1.4831083 13
3.0650632 4.4356456 -1.5350549 17
19.338045 28.133936 7.2428885 26
19.510492 28.459045 0 20
9.2898369 13.539303 -1.1428926 5
5.661984 8.2394333 -1.3966053 5
3.9739683 5.7701502 -1.4831083 13
3.0650632 4.4356456 -1.5350549 17
19.347013 27.937605 7.2096496 40
23.528936 34.050838 2.8845367 1
9.3299494 13.496538 -1.142023 4
5.6977615 8.2297955 -1.3983407 5
3.9954808 5.7582517 -1.4836284 13
3.0750294 4.4170346 -1.5323004 16
19.347013 27.937605 7.2096496 40
31.018251 44.853535 7.6593909 1
23.528936 34.050838 2.8845367 1
9.3299494 13.496538 -1.142023 4
5.6977615 8.2297955 -1.3983407 5
3.9954808 5.7582517 -1.4836284 13
3.0750294 4.4170346 -1.5323004 16
19.46961 27.906002 7.2189984 20
25.736738 36.941242 6.3226337 18
25.753967 36.993454 3.1416435 16
9.3869848 13.478211 -1.1432406 4
5.7278709 8.2118855 -1.3986877 5
4.0183606 5.7482762 -1.4846689 12
3.0918105 4.4082398 -1.532989 16
19.46961 27.906002 7.2189984 20
31.0982 44.635303 7.6406021 1
25.753967 36.993454 3.1416435 16
9.3869848 13.478211 -1.1432406 4
5.7278709 8.2118855 -1.3986877 5
4.0183606 5.7482762 -1.4846689 12
3.0918105 4.4082398 -1.532989 16
19.561272 27.829866 7.2169204 28
25.878334 36.869415 6.3257647 2
25.871485 36.886997 3.1402519 1
9.4339762 13.445363 -1.1432406 5
5.757925 8.1938658 -1.3990346 4
4.0412202 5.7382112 -1.4857093 13
3.108568 4.3993826 -1.5336776 16
17.385355 28.925861 7.7709761 29
5.6848421 9.4493961 -1.3477859 5
3.9028034 6.4857192 -1.46183 6
2.9375651 4.876708 -1.5150458 5
19.561272 27.829866 7.2169204 28
31.225368 44.485954 7.6336436 1
25.871485 36.886997 3.1402519 1
9.4339762 13.445363 -1.1432406 5
5.757925 8.1938658 -1.3990346 4
4.0412202 5.7382112 -1.4857093 13
3.108568 4.3993826 -1.5336776 16
17.385355 28.925861 7.7709761 29
5.6848421 9.4493961 -1.3477859 5
3.9028034 6.4857192 -1.46183 6
2.9375651 4.876708 -1.5150458 5
19.96361 28.192465 7.3291011 25
26.044706 36.859604 3.1456449 3
9.4866114 13.420495 -1.1439364 5
5.7893548 8.1777573 -1.3997288 4
4.0541449 5.7141027 -1.4831083 14
3.1225102 4.386548 -1.532989 15
17.468548 28.835829 7.7631145 24
18.297657 30.216187 5.576694 24
21.927139 36.209167 3.7004151 27
22.708078 37.483887 0.76437175 1
9.7917891 16.158585 -0.99165869 7
5.7113571 9.4188871 -1.3462647 4
3.9228723 6.4678597 -1.4608777 6
2.9595857 4.8746796 -1.5176321 5
19.96361 28.192465 7.3291011 25
31.283258 44.239243 7.6099844 3
26.044706 36.859604 3.1456449 3
9.4866114 13.420495 -1.1439364 5
5.7893548 8.1777573 -1.3997288 4
4.0541449 5.7141027 -1.4831083 14
3.1225102 4.386548 -1.532989 15
17.468548 28.835829 7.7631145 24
18.297657 30.216187 5.576694 24
21.927139 36.209167 3.7004151 27
22.708078 37.483887 0.76437175 1
9.7917891 16.158585 -0.99165869 7
5.7113571 9.4188871 -1.3462647 4
3.9228723 6.4678597 -1.4608777 6
2.9595857 4.8746796 -1.5176321 5
21.35223 29.964022 5.1661048 9
26.249075 36.861401 3.1539946 4
19.519014 27.422361 0 2
9.5386305 13.389696 -1.1442842 4
5.8221664 8.1605129 -1.4004229 4
4.0807543 5.7071581 -1.4851891 13
3.1357617 4.3711705 -1.5316117 15
17.610949 28.831898 7.7793984 26
18.368387 30.083584 5.5645967 22
22.118114 36.224205 3.7102201 28
22.361874 36.60902 0.74818462 83
9.8900023 16.186493 -0.99559689 7
5.7497249 9.4042406 -1.3471774 5
3.9516757 6.461813 -1.4627824 6
2.9736478 4.8576212 -1.5156922 5
31.344604 43.983166 7.585629 1
26.249075 36.861401 3.1539946 4
19.519014 27.422361 0 2
9.5409679 13.388031 -1.1442842 4
5.8221664 8.1605129 -1.4004229 4
4.0807543 5.7071581 -1.4851891 13
3.1357617 4.3711705 -1.5316117 15
17.610949 28.831898 7.7793984 26
18.368387 30.083584 5.5645967 22
22.118114 36.224205 3.7102201 28
22.361874 36.60902 0.74818462 83
9.8900023 16.186493 -0.99559689 7
5.7497249 9.4042406 -1.3471774 5
3.9528031 6.461123 -1.4627824 6
2.9744956 4.8571024 -1.5156922 5
21.45314 29.851419 7.799634 25
21.377853 29.790478 5.1483607 71
26.472916 36.916012 3.1661716 9
19.585077 27.322943 0 13
9.5925856 13.366448 -1.1451541 4
5.8491955 8.1411619 -1.4004229 4
4.0939379 5.6856608 -1.4831083 12
3.1586933 4.3724303 -1.5357436 15
17.683477 28.735994 7.7692914 29
17.867672 29.046616 5.3835325 18
22.303366 36.256721 3.7211144 28
22.539484 36.626205 0.7500608 18
9.9815836 16.215261 -0.99940395 8
5.7821808 9.3872356 -1.3474817 4
3.9767835 6.452157 -1.4637347 5
2.9956605 4.8554316 -1.5182788 5
21.45314 29.851419 7.799634 25
21.377853 29.790478 5.1483607 71
26.472916 36.916012 3.1661716 9
19.585077 27.322943 0 13
9.5902519 13.368122 -1.1451541 4
5.847774 8.1421824 -1.4004229 4
4.0929451 5.6863751 -1.4831083 12
3.1579301 4.3729811 -1.5357436 15
17.678461 28.739082 7.7692914 29
17.862602 29.049732 5.3835325 18
22.297037 36.260612 3.7211144 28
22.533092 36.630138 0.7500608 18
9.9787531 16.217003 -0.99940395 8
5.7805424 9.3882446 -1.3474817 4
3.9756577 6.4528513 -1.4637347 5
2.9939659 4.8564768 -1.5182788 5
21.419521 29.586212 7.7497768 26
21.152424 29.260279 5.0693798 51
26.845539 37.160969 3.1952221 50
19.662767 27.230089 0 13
9.63978 13.338607 -1.145502 5
5.879065 8.1257315 -1.4011171 4
4.1142054 5.6740313 -1.4836284 13
3.1717598 4.3599892 -1.5350549 15
17.792793 28.699972 7.7754683 31
17.940481 28.949425 5.3765087 13
22.487762 36.286285 3.7317908 27
22.849176 36.855049 0.75629997 1
5.8158951 9.3722248 -1.3480902 4
4.0020428 6.445188 -1.4651632 5
3.0159996 4.8541999 -1.5208653 5
21.419521 29.586212 7.7497768 26
21.152424 29.260279 5.0693798 51
26.845539 37.160969 3.1952221 50
19.662767 27.230089 0 13
9.642108 13.336924 -1.145502 5
5.8804827 8.1247044 -1.4011171 4
4.1151962 5.6733136 -1.4836284 13
3.1725211 4.3594356 -1.5350549 15
17.797802 28.696867 7.7754683 31
17.945534 28.946293 5.3765087 13
22.494095 36.28236 3.7317908 27
22.855606 36.851059 0.75629997 1
5.8175306 9.3712101 -1.3480902 4
4.0031681 6.4444895 -1.4651632 5
3.0176938 4.853147 -1.5208653 5
21.369246 29.290211 7.6926475 24
21.021873 28.856417 5.0126667 68
26.977156 37.056274 3.1947002 38
19.788921 27.194223 0 9
9.6968012 13.309555 -1.1461978 5
5.9189801 8.1150951 -1.4031996 5
4.1417389 5.6660857 -1.4857093 13
3.1870549 4.3458414 -1.5343663 15
17.875736 28.588066 7.7636757 31
18.047577 28.874044 5.3753381 28
22.688969 36.298931 3.7420316 27
23.002445 36.786118 0.75669265 1
5.850522 9.3477221 -1.3477859 5
4.0254583 6.4276948 -1.4646871 5
3.0303283 4.8338714 -1.5182788 5
21.369246 29.290211 7.6926475 24
21.021873 28.856417 5.0126667 68
26.977156 37.056274 3.1947002 38
27.052368 37.17318 0 24
9.6968012 13.309555 -1.1461978 5
5.9189801 8.1150951 -1.4031996 5
4.1417389 5.6660857 -1.4857093 13
3.1870549 4.3458414 -1.5343663 15
17.875736 28.588066 7.7636757 31
18.047577 28.874044 5.3753381 28
22.688969 36.298931 3.7420316 27
23.002445 36.786118 0.75669265 1
5.850522 9.3477221 -1.3477859 5
4.0254583 6.4276948 -1.4646871 5
3.0303283 4.8338714 -1.5182788 5
21.406179 29.126772 7.6692767 25
21.151777 28.822777 5.0196257 66
27.107817 36.96389 3.194874 30
19.874857 27.112886 0 13
9.7461538 13.279645 -1.1465456 5
5.9487381 8.0963793 -1.4035466 5
4.1629434 5.6535621 -1.4862295 13
3.2007761 4.3327584 -1.5336776 15
17.902681 28.410078 7.7322302 27
18.131145 28.783707 5.370265 30
22.869967 36.305904 3.7509651 28
23.233335 36.868427 0.76005226 1
9.7994833 15.54632 -0.96448457 10
5.8897362 9.3377352 -1.3493071 4
4.0504913 6.4177537 -1.4656394 5
3.0510545 4.8293872 -1.5202187 5
21.406179 29.126772 7.6692767 25
21.151777 28.822777 5.0196257 66
27.107817 36.96389 3.194874 30
25.756908 35.134995 0 1
9.7438354 13.281346 -1.1465456 5
5.9487381 8.0963793 -1.4035466 5
4.1629434 5.6535621 -1.4862295 13
3.2007761 4.3327584 -1.5336776 15
17.902681 28.410078 7.7322302 27
18.131145 28.783707 5.370265 30
22.869967 36.305904 3.7509651 28
23.233335 36.868427 0.76005226 1
9.7994833 15.54632 -0.96448457 10
5.8897362 9.3377352 -1.3493071 4
4.0493712 6.4184613 -1.4656394 5
3.0502117 4.8299198 -1.5202187 5
21.37752 28.886591 7.6246123 20
21.210451 28.702705 5.0109272 57
27.304329 36.974098 3.2035718 27
25.965343 35.17408 0 16
9.7937536 13.256984 -1.1472415 5
5.9799743 8.0825768 -1.4045877 4
4.1874986 5.6475797 -1.4883103 13
3.2179983 4.325974 -1.5350549 16
18.017685 28.383465 7.7412152 28
18.238405 28.742188 5.3737769 20
23.058296 36.337112 3.7620778 27
9.7345362 15.33039 -0.95306355 20
5.9220009 9.3202486 -1.3496114 5
4.0693164 6.4029264 -1.4651632 6
3.0662115 4.8197784 -1.5202187 5
21.37752 28.886591 7.6246123 20
21.210451 28.702705 5.0109272 57
27.304329 36.974098 3.2035718 27
25.965343 35.17408 0 16
9.7937536 13.256984 -1.1472415 5
5.9785628 8.0836201 -1.4045877 4
4.1865129 5.6483102 -1.4883103 13
3.217243 4.3265362 -1.5350549 16
18.012733 28.386608 7.7412152 28
18.233389 28.745371 5.3737769 20
23.051954 36.341137 3.7620778 27
23.308863 36.731941 0.75874329 39
9.7318602 15.332088 -0.95306355 20
5.9203744 9.3212814 -1.3496114 5
4.0693164 6.4029264 -1.4651632 6
3.0653701 4.8203135 -1.5202187 5
21.485533 28.821594 7.6272097 18
21.379999 28.721817 5.0272799 54
27.521061 36.996616 3.2138355 30
26.132727 35.14341 0 16
9.8429499 13.226718 -1.1475896 5
6.0185838 8.0785809 -1.4073644 4
4.2091317 5.6375794 -1.4893508 12
3.2352102 4.3191242 -1.5364324 16
18.113022 28.325611 7.7417765 18
18.304356 28.635777 5.3651919 29
9.8729715 15.446902 1.6008332 43
9.9387503 15.543818 0.32142967 14
9.7368841 15.222316 -0.94833755 24
5.9595656 9.3110075 -1.3511326 5
4.0942903 6.3928156 -1.4661156 6
3.0873919 4.8177156 -1.5228052 6
21.485533 28.821594 7.6272097 18
22.494776 30.219042 5.2896214 1
27.521061 36.996616 3.2138355 30
26.132727 35.14341 0 16
9.8429499 13.226718 -1.1475896 5
6.0199933 8.0775299 -1.4073644 4
4.2101159 5.6368446 -1.4893508 12
3.2359641 4.3185592 -1.5364324 16
18.117966 28.322447 7.7417765 18
18.309355 28.632582 5.3651919 29
23.26684 36.38438 3.7753687 22
23.485096 36.711536 0.76009589 2
9.7395411 15.220617 -0.94833755 24
5.9611907 9.309967 -1.3511326 5
4.0942903 6.3928156 -1.4661156 6
3.0882325 4.8171763 -1.5228052 6
21.564581 28.707457 7.6178608 24
22.562294 30.07896 5.279531 39
27.72978 36.993271 3.2223592 28
26.336321 35.147419 0 13
9.8913612 13.190554 -1.1475896 5
6.0525341 8.0593691 -1.4080585 4
4.2366343 5.6291876 -1.4914316 10
3.2532203 4.3085871 -1.5371211 16
9.8847628 15.329442 4.1962929 21
18.376711 28.507172 5.3542657 22
9.9281607 15.402598 1.6001793 255
9.9807491 15.478235 0.32086247 173
9.766839 15.140764 -0.94558078 28
5.9898891 9.2797174 -1.3499156 5
4.1216888 6.3839512 -1.4675441 6
3.103245 4.8017697 -1.5215119 6
21.564581 28.707457 7.6178608 24
22.562294 30.07896 5.279531 39
27.72978 36.993271 3.2223592 28
26.336321 35.147419 0 13
9.8936634 13.188827 -1.1475896 5
6.0525341 8.0593691 -1.4080585 4
4.2366343 5.6291876 -1.4914316 10
3.2532203 4.3085871 -1.5371211 16
9.8847628 15.329442 4.1962929 21
18.376711 28.507172 5.3542657 22
9.9281607 15.402598 1.6001793 255
9.9807491 15.478235 0.32086247 173
9.766839 15.140764 -0.94558078 28
5.9898891 9.2797174 -1.3499156 5
4.1228027 6.3832321 -1.4675441 6
3.1040828 4.8012276 -1.5215119 6
21.707458 28.68856 7.6329222 26
22.553713 29.849918 5.253088 41
27.969961 37.043526 3.2352321 30
9.941143 13.156198 -1.1477634 5
6.086607 8.0460882 -1.4094468 4
4.2577357 5.6163125 -1.4919518 9
3.2653279 4.2933812 -1.5357436 15
9.8877668 15.217223 4.1749554 21
18.481489 28.451134 5.3558269 13
9.9357357 15.296841 1.5927712 254
10.000664 15.390904 0.31977171 236
9.7992172 15.075182 -0.94361162 14
6.0235977 9.2608309 -1.3502198 5
4.1450596 6.3688016 -1.4675441 6
3.1208236 4.7903633 -1.5215119 6
21.707458 28.68856 7.6329222 26
22.553713 29.849918 5.253088 41
27.969961 37.043526 3.2352321 30
9.9388475 13.157933 -1.1477634 5
6.0852022 8.0471506 -1.4094468 4
4.2567558 5.6170554 -1.4919518 9
3.2645783 4.293951 -1.5357436 15
9.8851109 15.218948 4.1749554 21
18.476522 28.454361 5.3558269 13
9.9330654 15.298574 1.5927712 254
9.9979782 15.39265 0.31977171 236
9.796586 15.076892 -0.94361162 14
6.0219817 9.2618828 -1.3502198 5
4.1439476 6.369525 -1.4675441 6
3.1191509 4.7914524 -1.5215119 6
21.778757 28.585299 7.6246123 9
22.471172 29.536579 5.2109885 34
28.163597 37.043877 3.243408 31
9.9884672 13.132842 -1.1484592 5
6.1193576 8.0367727 -1.4111822 5
4.2694211 5.5951362 -1.489871 8
3.2875738 4.2945447 -1.5398756 16
9.9088459 15.145317 4.1637249 22
9.9573107 15.225156 2.8693185 16
9.9442053 15.205111 1.5864524 254
10.009275 15.298756 0.31850642 253
9.8355904 15.027613 -0.94256139 7
6.0594611 9.2522421 -1.3517411 5
4.167738 6.3598533 -1.4684964 6
3.1389973 4.7871399 -1.5234518 5
21.778757 28.585299 7.6246123 9
22.471172 29.536579 5.2109885 34
28.163597 37.043877 3.243408 31
9.9884672 13.132842 -1.1484592 5
6.1193576 8.0367727 -1.4111822 5
4.2694211 5.5951362 -1.489871 8
3.2875738 4.2945447 -1.5398756 16
9.9088459 15.145317 4.1637249 22
9.9573107 15.225156 2.8693185 16
9.9442053 15.205111 1.5864524 254
10.009275 15.298756 0.31850642 253
9.8355904 15.027613 -0.94256139 7
6.0594611 9.2522421 -1.3517411 5
4.167738 6.3598533 -1.4684964 6
3.1389973 4.7871399 -1.5234518 5
21.89925 28.536257 7.6318836 22
22.810589 29.766443 5.2656136 20
28.404955 37.091854 3.2562809 32
26.822992 35.03912 0 18
10.035767 13.099875 -1.1486332 5
6.1458664 8.0133991 -1.410835 4
4.2963824 5.5898881 -1.4924719 6
3.3025444 4.2830429 -1.5398756 16
9.9388552 15.076062 4.1541786 26
10.011755 15.192368 2.8697088 22
9.9519901 15.101685 1.579262 255
10.026841 15.209465 0.31737199 255
9.8673668 14.96193 -0.94059235 21
6.0971889 9.239316 -1.352958 5
4.1926184 6.3493609 -1.4694487 6
3.1530247 4.7721243 -1.5221585 6
21.89925 28.536257 7.6318836 22
22.810589 29.766443 5.2656136 20
28.404955 37.091854 3.2562809 32
26.822992 35.03912 0 18
10.035767 13.099875 -1.1486332 5
6.147265 8.0123262 -1.410835 4
4.297358 5.5891385 -1.4924719 6
3.303292 4.2824659 -1.5398756 16
9.9414864 15.074327 4.1541786 26
10.014406 15.190619 2.8697088 22
9.954627 15.099947 1.579262 255
10.029494 15.207716 0.31737199 255
9.8699789 14.960207 -0.94059235 21
6.0988016 9.2382517 -1.352958 5
4.1926184 6.3493609 -1.4694487 6
3.1538575 4.771574 -1.5221585 6
21.954323 28.391966 7.6147447 23
28.639755 37.115826 3.2675879 31
26.931387 34.914841 0 16
10.08981 13.0709 -1.1493291 5
6.1902256 8.0073643 -1.4139587 4
4.3208117 5.5772147 -1.4935124 6
3.3233945 4.2760196 -1.5419418 14
9.9899244 15.027646 4.151371 4
10.086419 15.178492 2.8743913 4
10.007147 15.059213 1.5788263 189
10.043646 15.108408 0.31606305 255
9.9275084 14.928087 -0.94085485 39
6.1353698 9.2199678 -1.3535664 5
4.2145009 6.3319087 -1.4689726 6
3.1699858 4.7579737 -1.5215119 5
21.954323 28.391966 7.6147447 23
28.639755 37.115826 3.2675879 31
26.931387 34.914841 0 16
10.092092 13.069139 -1.1493291 5
6.1902256 8.0073643 -1.4139587 4
4.3208117 5.5772147 -1.4935124 6
3.3233945 4.2760196 -1.5419418 14
18.724995 28.165031 7.7878218 1
18.60755 27.998974 5.3070493 3
10.007147 15.059213 1.5788263 189
10.043646 15.108408 0.31606305 255
9.9275084 14.928087 -0.94085485 39
6.1353698 9.2199678 -1.3535664 5
4.2156062 6.3311734 -1.4689726 6
3.1708159 4.7574201 -1.5215119 5
22.027315 28.291992 7.6074739 25
28.846842 37.128956 3.2771554 31
12.417571 15.992326 0 4
10.138437 13.039537 -1.1496769 5
6.2121806 7.9809346 -1.4129175 5
4.3377771 5.5609283 -1.4929922 5
3.3375561 4.2649751 -1.5419418 10
19.369999 28.926607 8.0163631 13
18.719524 27.965841 5.3125124 26
10.043175 15.005249 1.5766474 100
10.065875 15.033481 0.31519043 255
9.9713984 14.886787 -0.94032973 37
6.1617656 9.193388 -1.3526537 5
4.2393136 6.3212357 -1.4699249 6
3.187921 4.7488832 -1.5221585 6
22.027315 28.291992 7.6074739 25
28.846842 37.128956 3.2771554 31
12.417571 15.992326 0 4
10.136161 13.041306 -1.1496769 5
6.2107873 7.982018 -1.4129175 5
4.3368068 5.561686 -1.4929922 5
3.3368115 4.2655573 -1.5419418 10
19.36495 28.929987 8.0163631 13
18.714645 27.969109 5.3125124 26
10.040557 15.007003 1.5766474 100
10.063251 15.035237 0.31519043 255
9.9688005 14.888528 -0.94032973 37
6.160161 9.1944637 -1.3526537 5
4.2382102 6.3219757 -1.4699249 6
3.1862633 4.7499962 -1.5221585 6
22.109341 28.193768 7.6017609 18
22.493631 28.724911 5.1226134 32
23.671608 30.250576 2.6768334 20
10.181623 13.005845 -1.1496769 5
6.2523642 7.9778218 -1.4160411 5
4.3561945 5.5465136 -1.4929922 5
3.3561478 4.2595439 -1.5440078 9
18.536757 27.484825 7.6334019 16
18.809401 27.899517 5.3117313 26
10.11707 15.002092 0.31523407 163
10.030486 14.868128 -0.94124866 41
