# .PCD v0.7 - Point Cloud Data file format
VERSION 0.7
FIELDS x y z intensity
SIZE 4 4 4 4
TYPE F F F F
COUNT 1 1 1 1
WIDTH 1429
HEIGHT 1
VIEWPOINT 0 0 0 1 0 0 0
POINTS 1429
DATA ascii
8.0464172 -4.3252521 -1.765624 5
10.601151 -3.4657042 -1.7630031 6
5.8469486 -3.1463788 -1.7685232 5
7.2973127 -2.3758986 -1.7609507 4
22.906759 -14.487273 5.7487116 20
18.977949 -7.6813879 5.088346 23
29.066393 -18.355885 4.8265228 3
19.11105 -7.7507567 3.6265218 35
33.838257 -21.353703 2.7885134 4
25.19186 -10.23156 2.8541498 15
38.42128 -24.237133 0 30
61.254887 -24.9126 2.3079908 1
29.100742 -11.842458 -1.1014132 25
10.821208 -6.8412414 -1.7898344 4
16.618237 -6.7636909 -1.8757867 4
7.1036711 -4.5014105 -1.7817068 5
9.3229237 -3.7935541 -1.768608 5
5.3021011 -3.3714631 -1.7905532 7
6.5918918 -2.680269 -1.7641901 5
22.495279 -12.065048 5.8758216 18
18.885324 -6.0974007 5.3008165 21
21.458954 -11.504334 3.8421474 19
18.94874 -6.1543388 3.862319 23
31.918703 -17.11281 3.1654966 22
21.819691 -7.1155 2.8096588 26
58.491673 -31.374252 1.1579671 1
63.875633 -20.882547 3.5201166 1
21.523672 -11.548718 -1.2825662 13
27.865547 -9.1126423 -0.51114148 25
13.05831 -7.0116892 -1.8129699 6
20.495516 -6.6997919 -1.8796811 16
8.0471725 -4.3238473 -1.765624 5
10.602361 -3.4620037 -1.7630031 6
5.8480463 -3.1443379 -1.7685232 5
7.2977271 -2.374625 -1.7609507 4
22.916336 -14.599957 5.7632537 24
18.920931 -7.7314353 5.0798903 26
26.227451 -16.68449 4.3637724 13
19.10347 -7.8215504 3.6299913 25
31.083979 -19.759647 2.5667195 3
26.56801 -10.893127 3.0143394 1
38.600216 -24.52936 0 28
29.072866 -11.943641 -1.1018517 40
10.813077 -6.8864031 -1.7922639 4
16.600315 -6.8206511 -1.8763077 4
7.0866432 -4.5236249 -1.7811865 5
9.3194036 -3.8281896 -1.7703445 5
5.2908916 -3.3890271 -1.7905532 7
6.5897007 -2.7048755 -1.7660033 5
22.210852 -12.007489 5.8118072 28
19.064747 -6.2251649 5.3570366 21
21.285999 -11.502637 3.8179533 19
18.860607 -6.1949477 3.8484979 26
28.779097 -15.552456 2.8589261 16
21.857248 -7.2080112 2.8175693 1
34.910862 -18.87438 0.69211876 1
21.777994 -7.2029433 1.2003251 3
21.742176 -11.759003 -1.2979255 1
21.776039 -7.2023029 -0.39975056 8
12.991342 -7.0313253 -1.806885 6
20.57251 -6.8005309 -1.8888144 14
8.0371046 -4.3528476 -1.7665764 5
10.553303 -3.4847713 -1.7567388 5
5.8503246 -3.1706204 -1.772403 5
7.2944417 -2.4003322 -1.7620738 5
22.916336 -14.599957 5.7632537 24
18.920931 -7.7314353 5.0798903 26
26.227451 -16.68449 4.3637724 13
19.10347 -7.8215504 3.6299913 25
33.605213 -21.362761 2.7751186 23
26.56801 -10.893127 3.0143394 1
38.600216 -24.52936 0 28
61.169617 -25.114641 2.3079035 1
29.072866 -11.943641 -1.1018517 40
10.813077 -6.8864031 -1.7922639 4
16.600315 -6.8206511 -1.8763077 4
7.0866432 -4.5236249 -1.7811865 5
9.3194036 -3.8281896 -1.7703445 5
5.2908916 -3.3890271 -1.7905532 7
6.5897007 -2.7048755 -1.7660033 5
22.210852 -12.007489 5.8118072 28
19.064747 -6.2251649 5.3570366 21
21.285999 -11.502637 3.8179533 19
18.860607 -6.1949477 3.8484979 26
32.032673 -17.310925 3.182492 16
21.857248 -7.2080112 2.8175693 1
58.36092 -31.55378 1.1574435 1
63.734913 -21.070744 3.516191 1
21.742176 -11.759003 -1.2979255 1
27.937227 -9.2387285 -0.51301759 3
12.991342 -7.0313253 -1.806885 6
20.57251 -6.8005309 -1.8888144 14
8.0371046 -4.3528476 -1.7665764 5
10.553303 -3.4847713 -1.7567388 5
5.8503246 -3.1706204 -1.772403 5
7.2944417 -2.4003322 -1.7620738 5
22.867289 -14.681181 5.763773 7
18.543983 -7.6530967 4.9856725 28
26.123203 -16.746542 4.3561177 6
19.080603 -7.8900681 3.6308589 24
30.953915 -19.829008 2.5616746 18
26.408073 -10.935394 3.0004895 13
38.548035 -24.685522 0 1
22.107666 -9.1730652 -0.8387962 7
10.795222 -6.9281192 -1.7933049 4
16.571814 -6.8766503 -1.8757867 4
7.072866 -4.5496593 -1.7817068 6
9.30371 -3.8597541 -1.7699105 5
5.2689376 -3.4009511 -1.7871097 10
6.5779781 -2.726933 -1.7653989 5
19.081884 -6.3045454 5.368022 30
21.189344 -11.546144 3.8078074 16
18.929701 -6.2909102 3.867085 20
28.890835 -15.743397 2.8754859 40
21.808413 -7.2764139 2.8145266 27
21.76219 -7.2820854 1.2008485 3
22.045097 -12.022513 -1.3185358 3
21.703356 -7.2624173 -0.39887795 35
12.925336 -7.0540404 -1.8011044 4
20.633684 -6.9007206 -1.8966428 17
8.0175543 -4.3785224 -1.765624 5
10.559813 -3.5278397 -1.759871 5
5.8392215 -3.1910226 -1.772403 5
7.2790823 -2.4234753 -1.7603891 5
25.001074 -16.051573 6.3023415 1
18.543983 -7.6530967 4.9856725 28
29.299223 -18.783163 4.8863673 1
19.080603 -7.8900681 3.6308589 24
33.736217 -21.611788 2.7921662 4
26.406166 -10.940003 3.0004895 13
38.548035 -24.685522 0 1
61.035423 -25.30887 2.3061588 1
29.030998 -12.045051 -1.1018517 16
10.794014 -6.9300032 -1.7933049 4
16.571814 -6.8766503 -1.8757867 4
7.0720725 -4.5508938 -1.7817068 6
9.30371 -3.8597541 -1.7699105 5
5.2683439 -3.4018707 -1.7871097 10
6.5779781 -2.726933 -1.7653989 5
19.081884 -6.3045454 5.368022 30
21.187328 -11.549843 3.8078074 16
18.929701 -6.2909102 3.867085 20
31.986504 -17.43775 3.1842351 1
21.808413 -7.2764139 2.8145266 27
34.758064 -18.956726 0.6904608 1
21.326532 -7.1364012 1.1767739 1
22.042999 -12.026361 -1.3185358 3
21.702089 -7.2662001 -0.39887795 35
12.924105 -7.0562959 -1.8011044 4
20.632479 -6.9043212 -1.8966428 17
8.0175543 -4.3785224 -1.765624 5
10.559196 -3.5296826 -1.759871 5
5.8386645 -3.1920416 -1.772403 5
7.2786593 -2.4247458 -1.7603891 5
24.792967 -16.040422 6.2639093 18
18.624647 -7.762568 5.0146627 26
26.126968 -16.877934 4.3665557 4
19.248341 -8.0381985 3.6681564 15
30.77766 -19.867947 2.552803 48
24.993881 -10.457383 2.8439581 10
21.934942 -9.1912909 -0.8334474 3
10.778071 -6.973021 -1.7946932 4
16.543121 -6.9325337 -1.8752658 4
7.0561433 -4.5755525 -1.7817068 6
9.3015356 -3.8969607 -1.772081 5
5.258451 -3.4215519 -1.7877984 23
6.5728951 -2.75175 -1.7666076 5
21.569368 -11.860882 5.6658101 23
18.991043 -6.3481627 5.3486357 28
21.047344 -11.569008 3.7898571 8
19.035578 -6.3999333 3.8932974 21
28.870039 -15.869579 2.87919 41
21.754667 -7.342978 2.8108759 31
21.720083 -7.3524055 1.1999326 32
22.035881 -12.122487 -1.3206363 3
21.690798 -7.3467188 -0.39913973 24
12.877658 -7.089397 -1.7980621 4
20.707336 -7.009819 -1.9057759 15
8.0129709 -4.4124036 -1.768005 5
10.535114 -3.5625691 -1.7579134 4
5.8317161 -3.2147357 -1.7736963 5
7.2701516 -2.4501383 -1.7603891 5
24.792967 -16.040422 6.2639093 18
18.624647 -7.762568 5.0146627 26
26.126968 -16.877934 4.3665557 4
19.248341 -8.0381985 3.6681564 15
30.77766 -19.867947 2.552803 48
24.993881 -10.457383 2.8439581 10
60.905224 -25.504398 2.3045881 1
28.981863 -12.143418 -1.1015886 3
10.778071 -6.973021 -1.7946932 4
16.543121 -6.9325337 -1.8752658 4
7.0561433 -4.5755525 -1.7817068 6
9.3015356 -3.8969607 -1.772081 5
5.258451 -3.4215519 -1.7877984 23
6.5728951 -2.75175 -1.7666076 5
21.569368 -11.860882 5.6658101 23
18.991043 -6.3481627 5.3486357 28
21.047344 -11.569008 3.7898571 8
19.035578 -6.3999333 3.8932974 21
32.115311 -17.653681 3.2031913 1
21.754667 -7.342978 2.8108759 31
34.569027 -19.010481 0.68801749 1
21.720083 -7.3524055 1.1999326 32
22.035881 -12.122487 -1.3206363 3
21.690798 -7.3467188 -0.39913973 24
12.877658 -7.089397 -1.7980621 4
20.707336 -7.009819 -1.9057759 15
8.0129709 -4.4124036 -1.768005 5
10.535114 -3.5625691 -1.7579134 4
5.8317161 -3.2147357 -1.7736963 5
7.2701516 -2.4501383 -1.7603891 5
25.29808 -16.492886 6.4062119 16
18.644394 -7.8472905 5.0273461 27
26.155027 -17.025768 4.3811688 6
19.231508 -8.1101208 3.6703246 16
30.630772 -19.924932 2.5463665 39
24.828968 -10.490385 2.829324 23
10.755737 -7.0119538 -1.7950402 4
16.527981 -6.994112 -1.8763077 4
7.0503602 -4.6068478 -1.7843077 6
9.2742691 -3.9236529 -1.7694762 5
5.2324128 -3.4306531 -1.7829777 21
6.5632496 -2.774677 -1.7666076 5
22.405588 -12.422849 5.8971591 25
18.950464 -6.4082294 5.3434658 26
21.021948 -11.650785 3.7925887 2
28.773081 -15.947315 2.8750501 43
21.778223 -7.435699 2.8172648 23
34.530876 -19.146791 0.68858463 1
21.743891 -7.4451518 1.2026802 16
22.087307 -12.25141 -1.3262811 2
28.348097 -9.7105169 -0.52244198 23
12.852834 -7.1343055 -1.7980621 4
20.774641 -7.1135049 -1.9142566 17
7.9910822 -4.4367719 -1.7665764 5
10.515606 -3.5969279 -1.7567388 5
5.8246799 -3.2374201 -1.7749895 5
7.2546358 -2.4731472 -1.7587045 5
25.29808 -16.492886 6.4062119 16
18.644394 -7.8472905 5.0273461 27
28.343754 -18.450949 4.7482381 4
19.231508 -8.1101208 3.6703246 16
30.630772 -19.924932 2.5463665 39
24.828968 -10.490385 2.829324 23
60.765194 -25.695435 2.3026686 1
10.755737 -7.0119538 -1.7950402 4
16.527981 -6.994112 -1.8763077 4
7.0503602 -4.6068478 -1.7843077 6
9.2742691 -3.9236529 -1.7694762 5
5.2324128 -3.4306531 -1.7829777 21
6.5632496 -2.774677 -1.7666076 5
22.405588 -12.422849 5.8971591 25
18.950464 -6.4082294 5.3434658 26
23.356636 -12.944925 4.2144213 5
30.48299 -16.895132 3.0460932 1
21.778223 -7.435699 2.8172648 23
58.130985 -32.233932 1.1596251 1
21.743891 -7.4451518 1.2026802 16
33.13821 -18.382069 -1.9908 9
28.348097 -9.7105169 -0.52244198 23
12.852834 -7.1343055 -1.7980621 4
20.774641 -7.1135049 -1.9142566 17
7.9910822 -4.4367719 -1.7665764 5
10.515606 -3.5969279 -1.7567388 5
5.8246799 -3.2374201 -1.7749895 5
7.2546358 -2.4731472 -1.7587045 5
25.333504 -16.648632 6.4306216 22
18.870024 -8.0237665 5.0961971 27
26.063475 -17.102499 4.376298 16
30.609674 -20.07126 2.5507154 40
24.833799 -10.599858 2.8342893 21
10.746513 -7.0622115 -1.7978169 4
16.481659 -7.0458498 -1.8739636 4
7.0313864 -4.6313109 -1.7837876 5
9.2802019 -3.9663222 -1.7733834 5
5.2258162 -3.4537876 -1.7850438 19
6.5597291 -2.8015704 -1.7684208 6
22.234465 -12.434722 5.8640294 26
18.922279 -6.4760809 5.3421736 24
23.406025 -13.084672 4.2319813 8
20.374763 -7.0124998 4.177824 18
28.970943 -16.196083 2.9007609 68
21.732058 -7.5089912 2.8148308 25
33.327694 -18.647259 -2.0062907 25
28.385534 -9.8397207 -0.52379453 31
12.856908 -7.1983404 -1.8023214 4
20.835508 -7.2197542 -1.9223025 22
7.9876142 -4.4732285 -1.7694335 5
10.509352 -3.6378653 -1.7579134 4
5.8148808 -3.2599282 -1.7756361 5
7.2501292 -2.5013063 -1.7598276 5
25.333504 -16.648632 6.4306216 22
18.870024 -8.0237665 5.0961971 27
26.063475 -17.102499 4.376298 16
33.024578 -21.655142 2.7521563 1
24.833799 -10.599858 2.8342893 21
55.836689 -36.603191 0 1
60.252441 -25.739353 2.2867894 1
10.746513 -7.0622115 -1.7978169 4
16.481657 -7.045855 -1.8739636 4
7.0313864 -4.6313109 -1.7837876 5
9.2795105 -3.967942 -1.7733834 5
5.2258162 -3.4537876 -1.7850438 19
6.5592403 -2.8027153 -1.7684208 6
22.234465 -12.434722 5.8640294 26
20.685148 -7.0829911 5.8410439 1
23.406025 -13.084672 4.2319813 8
20.373541 -7.0160561 4.177824 18
28.970943 -16.196083 2.9007609 68
21.730749 -7.512784 2.8148308 25
58.025536 -32.454094 1.1598868 1
33.327694 -18.647259 -2.0062907 25
28.383818 -9.8446751 -0.52379453 31
12.856908 -7.1983404 -1.8023214 4
20.834246 -7.2233896 -1.9223025 22
7.9868331 -4.4746222 -1.7694335 5
10.508717 -3.6396995 -1.7579134 4
5.814312 -3.2609432 -1.7756361 5
7.2501292 -2.5013063 -1.7598276 5
25.348629 -16.785578 6.4493184 6
18.922153 -8.124033 5.1179395 25
25.869398 -17.104603 4.353682 16
30.387541 -20.07761 2.5380166 22
10.713541 -7.0942106 -1.7964286 4
16.502621 -7.1230454 -1.8791727 4
7.0212874 -4.6598864 -1.7853482 5
9.2565613 -3.9964075 -1.7716469 5
5.2137289 -3.4720078 -1.7850438 19
6.5405059 -2.8217528 -1.7660033 5
22.063604 -12.440459 5.8303375 24
18.848207 -6.5280142 5.3279572 17
20.93804 -11.800916 3.7925887 4
20.300253 -7.07019 4.1678157 19
29.369835 -16.553934 2.9465177 65
21.697363 -7.5861368 2.8139181 26
33.488537 -18.891056 -2.0199432 28
28.563936 -10.018949 -0.52776504 30
12.79065 -7.219995 -1.7965409 4
20.907621 -7.3306608 -1.9314356 16
7.9690275 -4.501267 -1.7689571 5
10.486626 -3.6730983 -1.7563474 4
5.7923846 -3.2752731 -1.772403 5
7.2344513 -2.5241947 -1.7581431 6
25.348629 -16.785578 6.4493184 6
18.922153 -8.124033 5.1179395 25
25.869398 -17.104603 4.353682 16
30.387541 -20.07761 2.5380166 22
55.677292 -36.777199 0 1
59.997051 -25.878281 2.2805076 1
10.71478 -7.0923405 -1.7964286 4
16.502625 -7.1230402 -1.8791727 4
7.0221004 -4.6586614 -1.7853482 5
9.2572584 -3.9947922 -1.7716469 5
5.2143345 -3.4710977 -1.7850438 19
6.5409985 -2.8206115 -1.7660033 5
22.065777 -12.436607 5.8303375 24
20.551991 -7.1136527 5.8100257 1
22.897816 -12.900379 4.1476932 4
23.171076 -8.0648203 4.7578392 1
29.372723 -16.548807 2.9465177 65
21.698685 -7.5823498 2.8139181 26
36.351749 -20.489647 0.72776532 1
33.491833 -18.885214 -2.0199432 28
28.567427 -10.008983 -0.52776504 30
12.791909 -7.2177629 -1.7965409 4
20.910179 -7.3233619 -1.9314356 16
7.9698138 -4.4998755 -1.7689571 5
10.487907 -3.6694379 -1.7563474 4
5.7935276 -3.2732511 -1.772403 5
7.2348919 -2.5229325 -1.7581431 6
25.296894 -16.872261 6.450357 4
18.870623 -8.1761293 5.1112962 17
25.849621 -17.214998 4.3599448 18
19.556587 -8.4894581 3.7492564 34
30.540854 -20.324751 2.5564559 3
26.297569 -11.43128 3.0101583 1
10.703558 -7.1360779 -1.798511 4
16.442436 -7.1618428 -1.8750054 4
7.0066133 -4.6819215 -1.7853482 5
9.2575054 -4.0313635 -1.7742516 5
5.2187572 -3.499088 -1.7905532 18
6.533834 -2.8432539 -1.7666076 5
22.094313 -12.549421 5.8488679 30
22.238634 -12.626288 4.0356984 1
20.233952 -7.1184649 4.1587605 5
29.226725 -16.594471 2.9373665 29
21.673424 -7.654264 2.8139181 9
36.337936 -20.640947 0.72885609 1
62.931343 -22.277609 3.4968266 1
33.598324 -19.092386 -2.0301828 26
28.61891 -10.133683 -0.52933574 30
12.808885 -7.2834511 -1.8023214 4
20.979698 -7.4258838 -1.9401338 16
7.9633794 -4.531136 -1.7708619 5
10.475681 -3.7041969 -1.7563474 5
5.7910342 -3.2972269 -1.7749895 5
7.2310829 -2.5485275 -1.7592661 6
27.70751 -18.480549 7.0657897 6
18.870623 -8.1761293 5.1112962 17
25.843441 -17.210882 4.358901 18
19.556587 -8.4894581 3.7492564 34
33.245949 -22.125418 2.7831204 16
26.297569 -11.43128 3.0101583 1
55.671581 -37.039192 0 1
60.169765 -26.18976 2.2903664 1
10.703558 -7.1360779 -1.798511 4
16.442436 -7.1618428 -1.8750054 4
7.0066133 -4.6819215 -1.7853482 5
9.2575054 -4.0313635 -1.7742516 5
5.2187572 -3.499088 -1.7905532 18
6.533834 -2.8432539 -1.7666076 5
22.094313 -12.549421 5.8488679 30
22.238634 -12.626288 4.0356984 1
22.963615 -8.078125 4.720665 7
29.226725 -16.594471 2.9373665 29
21.673424 -7.654264 2.8139181 9
57.939419 -32.912296 1.1625048 1
62.931343 -22.277609 3.4968266 1
33.598324 -19.092386 -2.0301828 26
28.61891 -10.133683 -0.52933574 30
12.808885 -7.2834511 -1.8023214 4
20.979698 -7.4258838 -1.9401338 16
7.9633794 -4.531136 -1.7708619 5
10.475681 -3.7041969 -1.7563474 5
5.7910342 -3.2972269 -1.7749895 5
7.2310829 -2.5485275 -1.7592661 6
27.744308 -18.645367 7.0917573 27
18.928654 -8.2798586 5.1348505 8
25.834595 -17.335482 4.3675995 31
19.560659 -8.5724916 3.7557616 26
30.552572 -20.486801 2.5634143 18
26.28483 -11.534994 3.0132942 17
10.680638 -7.174777 -1.798858 4
16.440098 -7.2292004 -1.8776098 4
6.9922547 -4.7077169 -1.7858683 6
9.2388678 -4.0616727 -1.7733834 5
5.2085013 -3.5186298 -1.7912419 16
6.5238695 -2.8660438 -1.7666076 5
22.044033 -12.622838 5.8471832 23
19.635582 -6.9466877 5.5638218 27
22.325151 -12.778675 4.0595021 22
29.345852 -16.797848 2.9552331 34
21.676954 -7.7407131 2.8178732 1
62.846142 -22.494619 3.496434 1
33.797916 -19.362204 -2.0463297 23
28.795174 -10.309319 -0.53326255 29
12.725263 -7.2947917 -1.7941068 4
21.045105 -7.5317812 -1.9486145 16
7.9538999 -4.5625706 -1.7722903 5
10.462687 -3.740741 -1.7563474 5
5.77949 -3.3174212 -1.7749895 5
7.2221427 -2.5737529 -1.7592661 5
27.744308 -18.645367 7.0917573 27
18.928654 -8.2798586 5.1348505 8
25.834595 -17.335482 4.3675995 31
19.560659 -8.5724916 3.7557616 26
32.201256 -21.592583 2.7018831 1
26.282814 -11.539582 3.0132942 17
55.668621 -37.318218 0 1
60.329597 -26.510187 2.299964 1
10.679385 -7.176641 -1.798858 4
16.440098 -7.2292004 -1.8776098 4
6.9914327 -4.7089372 -1.7858683 6
9.2388678 -4.0616727 -1.7733834 5
5.2078876 -3.5195389 -1.7912419 16
6.5238695 -2.8660438 -1.7666076 5
22.04183 -12.626685 5.8471832 23
19.635582 -6.9466877 5.5638218 27
22.32292 -12.782572 4.0595021 22
29.342922 -16.802971 2.9552331 34
21.676954 -7.7407131 2.8178732 1
57.818401 -33.124435 1.1625048 1
62.846142 -22.494619 3.496434 1
33.794533 -19.368105 -2.0463297 23
28.793377 -10.314339 -0.53326255 29
12.723989 -7.2970123 -1.7941068 4
21.043789 -7.5354538 -1.9486145 16
7.9538999 -4.5625706 -1.7722903 5
10.462034 -3.7425673 -1.7563474 5
5.7789106 -3.3184299 -1.7749895 5
7.221693 -2.5750132 -1.7592661 5
18.829386 -8.3187952 5.116128 28
25.733976 -17.405081 4.3613367 30
19.81505 -8.7706604 3.8108404 27
31.958677 -21.600121 2.6881406 1
26.228981 -11.630797 3.0119874 28
10.663258 -7.2226801 -1.8005934 4
16.399857 -7.2833543 -1.8760473 4
6.980195 -4.7386546 -1.7874291 5
9.237422 -4.1014996 -1.7759881 5
5.2048793 -3.5453746 -1.7946852 10
6.5177565 -2.8919022 -1.7678164 5
21.879389 -12.640352 5.816299 25
19.480373 -6.9722514 5.5269885 26
22.344345 -12.903826 4.0719895 23
20.946892 -7.5379705 4.3165131 29
29.307018 -16.925354 2.9578481 34
28.836349 -16.666929 -1.7495149 13
28.809435 -10.439381 -0.53426611 30
12.744411 -7.3709359 -1.8008002 4
21.123755 -7.6515279 -1.9586174 17
7.9349999 -4.5904632 -1.7718142 5
10.452889 -3.7825656 -1.7571303 5
5.7708879 -3.3420098 -1.7762828 5
7.2076225 -2.5998142 -1.7581431 6
18.829386 -8.3187952 5.116128 28
25.733976 -17.405081 4.3613367 30
19.81505 -8.7706604 3.8108404 27
31.958677 -21.600121 2.6881406 1
26.228981 -11.630797 3.0119874 28
55.73653 -37.660583 0 1
60.291409 -26.757479 2.3022325 1
10.663258 -7.2226801 -1.8005934 4
16.399855 -7.28336 -1.8760473 4
6.980195 -4.7386546 -1.7874291 5
9.2367067 -4.1031117 -1.7759881 5
5.2048793 -3.5453746 -1.7946852 10
6.5172515 -2.8930397 -1.7678164 5
21.879389 -12.640352 5.816299 25
19.479155 -6.9756513 5.5269885 26
22.344345 -12.903826 4.0719895 23
20.945576 -7.5416265 4.3165131 29
29.307018 -16.925354 2.9578481 34
62.630203 -22.689007 3.489238 1
33.95892 -19.628025 -2.0606389 1
28.807613 -10.444409 -0.53426611 30
12.744411 -7.3709359 -1.8008002 4
21.122417 -7.6552153 -1.9586174 17
7.9341984 -4.5918484 -1.7718142 5
10.452229 -3.7843895 -1.7571303 5
5.7703047 -3.3430169 -1.7762828 5
7.2076225 -2.5998142 -1.7581431 6
18.824606 -8.395339 5.1227713 27
25.666927 -17.490623 4.3602929 31
31.899576 -21.722778 2.6895323 6
26.247225 -11.748689 3.0187819 22
10.642069 -7.262651 -1.8012875 4
16.387943 -7.3466625 -1.8776098 4
6.9615941 -4.7616091 -1.7869087 6
9.2178345 -4.1333151 -1.7751199 5
5.1964331 -3.5662441 -1.7960626 8
6.504899 -2.9147801 -1.767212 5
21.769875 -12.678638 5.798892 29
22.322641 -12.995411 4.076282 7
29.237 -17.021288 2.9567585 25
26.80118 -9.791481 3.4941995 8
28.771519 -16.76371 -1.749121 31
28.843739 -10.571557 -0.53561866 30
12.695025 -7.4016271 -1.7974535 4
21.179762 -7.759726 -1.9664458 17
7.9266005 -4.6244645 -1.773719 5
10.441276 -3.8217001 -1.7575219 5
5.7669401 -3.3680124 -1.7788693 6
7.1939244 -2.6232913 -1.75702 5
18.824606 -8.395339 5.1227713 27
25.666927 -17.490623 4.3602929 31
37.135075 -25.288841 3.1313803 9
26.247225 -11.748689 3.0187819 22
55.755589 -37.957623 0 2
60.245522 -26.989222 2.3040645 1
10.642069 -7.262651 -1.8012875 4
16.387947 -7.3466573 -1.8776098 4
6.9615941 -4.7616091 -1.7869087 6
9.2185555 -4.1317062 -1.7751199 5
5.1964331 -3.5662441 -1.7960626 8
6.5054073 -2.9136448 -1.767212 5
21.769875 -12.678638 5.798892 29
22.322641 -12.995411 4.076282 7
29.237 -17.021288 2.9567585 25
26.802889 -9.7868032 3.4941995 8
62.460842 -22.862251 3.4840045 1
34.446712 -20.070732 -2.0945082 1
28.845585 -10.566524 -0.53561866 30
12.695025 -7.4016271 -1.7974535 4
21.181114 -7.7560301 -1.9664458 17
7.9274073 -4.6230812 -1.773719 5
10.441942 -3.8198774 -1.7575219 5
5.7675281 -3.3670056 -1.7788693 6
7.1939244 -2.6232913 -1.75702 5
27.85182 -19.144083 7.1701794 36
18.688257 -8.4089518 5.0931778 29
25.559799 -17.542013 4.3519425 20
18.888449 -8.5148468 3.6434357 28
31.664898 -21.71699 2.6757898 32
26.237579 -11.848964 3.0221791 21
10.626086 -7.3035131 -1.8026758 4
16.349903 -7.394815 -1.8760473 4
6.9558301 -4.7916098 -1.7895098 6
9.2137775 -4.1663094 -1.7768564 5
5.1865544 -3.5848241 -1.7967513 8
6.4934988 -2.9342031 -1.7666076 5
21.742418 -12.759392 5.8028226 26
20.226397 -7.3947544 5.75316 23
22.202749 -13.02438 4.0622339 20
20.058872 -7.3732023 4.1435094 23
28.920475 -16.965654 2.9303937 25
27.031044 -9.9717779 3.5282745 26
28.659798 -16.826164 -1.7457078 13
28.98621 -10.72716 -0.53889102 34
12.691806 -7.4562564 -1.800496 4
21.25806 -7.8642259 -1.9760138 19
7.9162645 -4.6518312 -1.7746713 5
10.436168 -3.857048 -1.7586964 5
5.756331 -3.3861129 -1.7788693 5
7.1920457 -2.6496551 -1.7587045 5
27.85182 -19.144083 7.1701794 36
18.688257 -8.4089518 5.0931778 29
25.559799 -17.542013 4.3519425 20
18.888449 -8.5148468 3.6434357 28
37.447926 -25.68413 3.1649539 1
26.239647 -11.844384 3.0221791 21
55.637653 -38.147957 0 1
60.105602 -27.166216 2.302145 1
10.627361 -7.3016591 -1.8026758 4
16.349903 -7.394815 -1.8760473 4
6.9566665 -4.7903953 -1.7895098 6
9.2137775 -4.1663094 -1.7768564 5
5.18718 -3.5839188 -1.7967513 8
6.4934988 -2.9342031 -1.7666076 5
21.744646 -12.755597 5.8028226 26
20.226397 -7.3947544 5.75316 23
22.205023 -13.020504 4.0622339 20
20.058872 -7.3732023 4.1435094 23
28.923437 -16.960606 2.9303937 25
27.031044 -9.9717779 3.5282745 26
62.349564 -23.056269 3.4820421 1
34.488991 -20.240772 -2.1009405 3
28.988081 -10.722107 -0.53889102 34
12.693107 -7.454041 -1.800496 4
21.259432 -7.8605156 -1.9760138 19
7.9162645 -4.6518312 -1.7746713 5
10.43684 -3.8552265 -1.7586964 5
5.7569218 -3.385108 -1.7788693 5
7.1925077 -2.6484001 -1.7587045 5
27.821007 -19.266251 7.1795273 34
18.875261 -8.572422 5.1523652 23
25.577816 -17.686049 4.3655119 28
18.872057 -8.5868454 3.6460381 23
31.888435 -22.034412 2.7011874 53
26.288647 -11.977132 3.0326319 16
10.599774 -7.3373013 -1.8023288 4
16.335299 -7.4570031 -1.8773496 4
6.9399023 -4.8146496 -1.7895098 6
9.1969385 -4.1974239 -1.7764221 5
5.1706953 -3.5992551 -1.7953739 7
6.4854245 -2.9578578 -1.767212 5
21.716764 -12.841344 5.8073149 21
20.10531 -7.4301724 5.7260194 29
22.176441 -13.107987 4.0653558 23
20.145748 -7.485034 4.166863 32
28.587494 -16.897968 2.9022863 42
26.910038 -10.03401 3.5170174 10
28.563017 -16.896957 -1.7432135 16
29.076916 -10.870479 -0.54124713 31
12.681956 -7.507153 -1.8026257 4
21.32519 -7.9695325 -1.984712 13
7.8957558 -4.6769333 -1.773719 5
10.423319 -3.8916345 -1.7586964 5
5.7471476 -3.4064147 -1.7795159 5
7.1763687 -2.6709452 -1.75702 5
27.821007 -19.266251 7.1795273 34
18.875261 -8.572422 5.1523652 23
25.577816 -17.686049 4.3655119 28
18.872057 -8.5868454 3.6460381 23
26.286554 -11.98172 3.0326319 16
31.698177 -21.894758 0 1
59.914932 -27.332308 2.2984807 1
10.598494 -7.3391514 -1.8023288 4
16.335299 -7.4570031 -1.8773496 4
6.9390626 -4.8158607 -1.7895098 6
9.1969385 -4.1974239 -1.7764221 5
5.1700668 -3.6001573 -1.7953739 7
6.4854245 -2.9578578 -1.767212 5
21.714521 -12.845134 5.8073149 21
20.10531 -7.4301724 5.7260194 29
22.174154 -13.111858 4.0653558 23
20.145748 -7.485034 4.166863 32
28.584543 -16.90296 2.9022863 42
26.910038 -10.03401 3.5170174 10
28.664774 -16.957161 0.58072877 1
62.27103 -23.274639 3.4821725 1
34.663792 -20.514553 -2.1161685 1
29.075022 -10.875548 -0.54124713 31
12.680646 -7.5093656 -1.8026257 4
21.323799 -7.9732542 -1.984712 13
7.8957558 -4.6769333 -1.773719 5
10.42264 -3.8934538 -1.7586964 5
5.7465529 -3.407418 -1.7795159 5
7.1759024 -2.6721976 -1.75702 5
27.801718 -19.396835 7.1919918 31
18.820965 -8.62714 5.1457214 14
25.566704 -17.810608 4.3742099 29
18.922523 -8.6896505 3.6616509 23
31.453161 -21.896193 2.6707451 18
26.160995 -12.034964 3.0229633 30
31.857527 -22.169518 0 80
10.582961 -7.3831873 -1.8040642 4
16.300135 -7.5098176 -1.8763077 4
6.9262156 -4.8428574 -1.7905502 6
9.1978855 -4.2367086 -1.779461 5
5.1653342 -3.6237082 -1.7981285 8
6.4816713 -2.9835191 -1.7690251 5
21.70512 -12.942065 5.8168607 14
18.902729 -7.0611258 5.3899927 28
22.225821 -13.247344 4.0833058 16
20.179237 -7.5777287 4.1792541 45
28.548901 -17.016665 2.9046831 69
27.076874 -10.203979 3.5434861 23
28.462303 -16.978508 -1.7408507 57
29.186529 -11.033519 -0.54403949 34
12.63092 -7.5395904 -1.799279 4
21.372725 -8.0766773 -1.991888 13
7.8857026 -4.7082415 -1.7751474 5
10.418228 -3.9332964 -1.7602625 5
5.7325516 -3.4262168 -1.7788693 4
7.175653 -2.7006569 -1.7592661 6
27.801718 -19.396835 7.1919918 31
18.820965 -8.62714 5.1457214 14
25.566704 -17.810608 4.3742099 29
18.922523 -8.6896505 3.6616509 23
36.946377 -25.721191 3.1376426 3
26.160995 -12.034964 3.0229633 30
31.857527 -22.169518 0 80
59.984837 -27.617558 2.3048499 1
10.582961 -7.3831873 -1.8040642 4
16.300135 -7.5098176 -1.8763077 4
6.9262156 -4.8428574 -1.7905502 6
9.1978855 -4.2367086 -1.779461 5
5.1653342 -3.6237082 -1.7981285 8
6.4816713 -2.9835191 -1.7690251 5
21.70512 -12.942065 5.8168607 14
18.902729 -7.0611258 5.3899927 28
22.225821 -13.247344 4.0833058 16
20.179237 -7.5777287 4.1792541 45
28.548901 -17.016665 2.9046831 69
27.076874 -10.203979 3.5434861 23
28.154573 -16.788258 0.57156628 1
62.173061 -23.485691 3.481257 1
28.462303 -16.978508 -1.7408507 57
29.186529 -11.033519 -0.54403949 34
12.63092 -7.5395904 -1.799279 4
21.372725 -8.0766773 -1.991888 13
7.8857026 -4.7082415 -1.7751474 5
10.418228 -3.9332964 -1.7602625 5
5.7325516 -3.4262168 -1.7788693 4
7.175653 -2.7006569 -1.7592661 6
27.706436 -19.481724 7.18576 37
18.665922 -8.6390162 5.1119003 15
25.470867 -17.882854 4.3689914 13
18.948624 -8.7858677 3.6729267 32
32.119854 -22.53566 2.7344131 27
26.150534 -12.146475 3.0268829 23
31.81699 -22.314846 0 6
10.557854 -7.4233513 -1.8044112 4
16.272501 -7.5695105 -1.8763077 5
6.9024248 -4.8639822 -1.7889897 6
9.1800632 -4.2693543 -1.779027 5
5.1500568 -3.6412272 -1.7974398 7
6.4728928 -3.0082774 -1.7696295 6
21.665892 -13.026552 5.8191071 6
18.824757 -7.1107445 5.3751302 28
22.155952 -13.315995 4.0794039 14
19.979239 -7.5863371 4.1435094 25
28.492743 -17.125034 2.9053366 3
26.83523 -10.225432 3.5167131 25
28.46344 -17.114183 0.57911444 77
28.382769 -17.072416 -1.7398005 57
29.283657 -11.193054 -0.54661375 34
12.637216 -7.6063128 -1.8041469 4
21.470945 -8.203825 -2.0038481 13
7.8599834 -4.7320476 -1.7732427 5
10.410663 -3.9740937 -1.7614371 5
5.7240911 -3.4496987 -1.7801625 4
7.167984 -2.7278042 -1.7598276 5
27.706436 -19.481724 7.18576 37
24.60388 -11.386512 6.7407746 1
29.012257 -20.369938 4.9771776 1
18.948624 -8.7858677 3.6729267 32
36.400703 -25.539827 3.0991983 1
26.150534 -12.146475 3.0268829 23
56.72036 -39.784782 0 1
59.819775 -27.807739 2.3024068 1
10.557854 -7.4233513 -1.8044112 4
16.272499 -7.5695157 -1.8763077 5
6.9024248 -4.8639822 -1.7889897 6
9.1793175 -4.270957 -1.779027 5
5.1500568 -3.6412272 -1.7974398 7
6.4723678 -3.009407 -1.7696295 6
28.405071 -17.079062 7.6317172 1
18.823513 -7.1140299 5.3751302 28
22.155952 -13.315995 4.0794039 14
19.977915 -7.5898237 4.1435094 25
28.492743 -17.125034 2.9053366 3
29.474524 -11.236533 3.8632429 1
28.46344 -17.114183 0.57911444 77
61.942493 -23.670782 3.4734066 1
28.382769 -17.072416 -1.7398005 57
29.281704 -11.198165 -0.54661375 34
12.637216 -7.6063128 -1.8041469 4
21.469511 -8.207572 -2.0038481 13
7.8591571 -4.7334189 -1.7732427 5
10.409969 -3.9759107 -1.7614371 5
5.7234888 -3.4506977 -1.7801625 4
7.167984 -2.7278042 -1.7598276 5
27.720074 -19.636286 7.2070537 26
18.72138 -8.7441483 5.1354547 20
25.450729 -18.001682 4.376298 20
18.971363 -8.876996 3.6833353 28
31.890301 -22.541101 2.7215402 77
26.128239 -12.24718 3.0292349 25
31.740942 -22.427216 0 1
10.537937 -7.4644551 -1.8054525 4
16.248226 -7.627327 -1.8765681 5
6.8913841 -4.8922963 -1.7905502 6
9.1710386 -4.3061099 -1.7803292 5
5.1470976 -3.6661603 -1.8008833 8
6.4640193 -3.0330112 -1.7702339 5
18.667704 -7.1297464 5.3376503 26
22.09033 -13.381736 4.0758915 19
19.729046 -7.5742431 4.09728 20
29.747032 -18.020634 3.0397744 18
26.785995 -10.319262 3.515192 37
28.442005 -17.236757 0.57989985 6
28.333677 -17.177864 -1.7404568 53
29.69479 -11.475039 -0.55507827 30
12.593616 -7.64008 -1.8017129 4
21.517403 -8.3120651 -2.011024 13
7.853076 -4.7671943 -1.7756237 5
10.396027 -4.0122237 -1.7614371 5
5.7093453 -3.4694009 -1.7795159 4
7.1538701 -2.7510624 -1.7587045 5
27.720074 -19.636286 7.2070537 26
18.72138 -8.7441483 5.1354547 20
25.450729 -18.001682 4.376298 20
18.971363 -8.876996 3.6833353 28
31.890301 -22.541101 2.7215402 77
26.128239 -12.24718 3.0292349 25
56.856758 -40.177315 0 1
59.790207 -28.048212 2.3050244 1
10.537937 -7.4644551 -1.8054525 4
16.24823 -7.6273212 -1.8765681 5
6.8913841 -4.8922963 -1.7905502 6
9.1717901 -4.3045096 -1.7803292 5
5.1470976 -3.6661603 -1.8008833 8
6.4645486 -3.0318832 -1.7702339 5
18.668947 -7.1264887 5.3376503 26
22.09033 -13.381736 4.0758915 19
19.730368 -7.5707994 4.09728 20
29.747032 -18.020634 3.0397744 18
26.787794 -10.314587 3.515192 37
28.442005 -17.236757 0.57989985 6
61.870651 -23.878757 3.473799 1
28.333677 -17.177864 -1.7404568 53
29.696793 -11.469856 -0.55507827 30
12.593616 -7.64008 -1.8017129 4
21.518852 -8.3083086 -2.011024 13
7.8539081 -4.7658234 -1.7756237 5
10.396727 -4.0104094 -1.7614371 5
5.7099509 -3.4684043 -1.7795159 4
7.1538701 -2.7510624 -1.7587045 5
27.680679 -19.746565 7.2138047 16
18.740566 -8.8289242 5.1487417 25
26.431269 -18.827251 4.5558314 20
19.333715 -9.1247711 3.7596648 25
31.977907 -22.762449 2.7354567 23
26.188633 -12.381571 3.0409942 22
10.513125 -7.4993596 -1.8054525 4
16.216106 -7.6779699 -1.8757867 5
6.8751225 -4.915122 -1.7905502 6
9.1574659 -4.3349004 -1.7803292 5
5.1407681 -3.6874149 -1.8029493 8
6.463232 -3.0574505 -1.7726514 5
28.392117 -17.335493 7.6597939 22
18.667746 -7.1970396 5.3441124 24
21.948875 -13.395735 4.0579414 20
19.597589 -7.5945301 4.0748801 17
27.98863 -17.082424 2.8656809 35
22.407579 -8.714221 2.9435246 14
28.280817 -17.274326 -1.7407192 29
29.651608 -11.565545 -0.55494738 31
12.57668 -7.6869779 -1.8029299 4
21.600248 -8.422123 -2.0212445 13
7.8338733 -4.7892804 -1.7746713 5
10.387973 -4.0466547 -1.76222 5
5.7045965 -3.4911034 -1.7814558 5
7.149251 -2.7765315 -1.7598276 6
27.680679 -19.746565 7.2138047 16
18.740566 -8.8289242 5.1487417 25
26.431269 -18.827251 4.5558314 20
19.333715 -9.1247711 3.7596648 25
36.32354 -25.85644 3.1075485 1
26.190794 -12.377001 3.0409942 22
57.030769 -40.584534 0 1
59.690086 -28.243124 2.3047626 1
20.639536 -9.7717438 -0.80021471 1
10.514434 -7.4975243 -1.8054525 4
16.216106 -7.6779699 -1.8757867 5
6.8759804 -4.9139218 -1.7905502 6
9.1574659 -4.3349004 -1.7803292 5
5.1414113 -3.6865172 -1.8029493 8
6.463232 -3.0574505 -1.7726514 5
28.395144 -17.330538 7.6597939 22
18.667746 -7.1970396 5.3441124 24
21.951216 -13.391903 4.0579414 20
19.597589 -7.5945301 4.0748801 17
27.991611 -17.077538 2.8656809 35
27.146626 -10.556183 3.5669129 1
61.737617 -24.062946 3.4707897 1
28.283829 -17.26939 -1.7407192 29
29.653622 -11.560376 -0.55494738 31
12.578021 -7.684783 -1.8029299 4
21.601719 -8.4183521 -2.0212445 13
7.8338733 -4.7892804 -1.7746713 5
10.38868 -4.0448418 -1.76222 5
5.7052054 -3.4901078 -1.7814558 5
7.1497355 -2.7752836 -1.7598276 6
27.837952 -20.005789 7.2730107 4
18.740305 -8.9088669 5.157197 25
26.146166 -18.762049 4.5179062 34
19.392889 -9.2355976 3.7774463 22
31.190985 -22.366642 2.674746 38
25.855675 -12.329249 3.0070226 24
10.49222 -7.5370708 -1.8061465 4
16.189205 -7.7345281 -1.8757867 5
6.8667216 -4.9436126 -1.792631 6
9.1467218 -4.3689609 -1.7811975 5
5.1285119 -3.7044418 -1.8029493 9
6.4459519 -3.0768597 -1.7708383 6
25.267756 -15.542892 6.8298559 18
18.613253 -7.2507696 5.335712 29
21.807575 -13.408943 4.0399909 22
19.394983 -7.5940337 4.0381823 9
27.976379 -17.202539 2.8702564 34
23.889883 -9.3864861 3.1428018 2
28.297791 -17.413811 -1.745314 23
29.715427 -11.704106 -0.55686712 31
12.540556 -7.7221341 -1.8014086 5
21.63941 -8.520153 -2.0275507 12
7.8254638 -4.8217473 -1.7765758 5
10.369901 -4.0792742 -1.7614371 5
5.6970987 -3.5125372 -1.7827491 5
7.1422715 -2.8011117 -1.7603891 6
27.837952 -20.005789 7.2730107 4
18.740305 -8.9088669 5.157197 25
26.146166 -18.762049 4.5179062 34
19.392889 -9.2355976 3.7774463 22
31.190985 -22.366642 2.674746 38
25.853519 -12.333761 3.0070226 24
57.506401 -41.226204 0 1
59.460361 -28.388878 2.2997022 1
20.68421 -9.8814192 -0.80328375 1
10.490904 -7.5389013 -1.8061465 4
16.189205 -7.7345281 -1.8757867 5
6.8658586 -4.9448113 -1.792631 6
9.1467218 -4.3689609 -1.7811975 5
5.1278658 -3.7053368 -1.8029493 9
6.4459519 -3.0768597 -1.7708383 6
25.265041 -15.5473 6.8298559 18
18.613253 -7.2507696 5.335712 29
21.805237 -13.41275 4.0399909 22
19.394983 -7.5940337 4.0381823 9
27.973375 -17.207424 2.8702564 34
27.486094 -10.798722 3.616504 10
61.592854 -24.254524 3.4673877 1
28.294752 -17.418751 -1.745314 23
29.713387 -11.709288 -0.55686712 31
12.539208 -7.7243228 -1.8014086 5
21.637924 -8.5239296 -2.0275507 12
7.8254638 -4.8217473 -1.7765758 5
10.369188 -4.0810843 -1.7614371 5
5.6964855 -3.5135312 -1.7827491 5
7.1417832 -2.8023584 -1.7603891 6
27.871384 -20.185158 7.3010564 3
18.795017 -9.0194674 5.1813555 27
26.277817 -19.002848 4.5526996 25
18.770847 -9.0239792 3.662518 31
30.837954 -22.285044 2.6514361 1
26.20241 -12.61827 3.053015 8
10.465207 -7.5787554 -1.8064936 4
16.162989 -7.7948928 -1.8760473 4
6.8536229 -4.9742537 -1.7941916 6
9.1306467 -4.4024558 -1.7811975 5
5.1239591 -3.7311864 -1.8063927 8
6.4455595 -3.1057265 -1.7738601 5
25.232729 -15.655212 6.8365946 27
18.629251 -7.3357439 5.3479896 19
21.669889 -13.439213 4.0239916 14
19.992325 -7.9123917 4.1687694 29
22.466887 -8.922863 2.9596493 7
28.338894 -17.589491 -1.752009 1
29.825867 -11.880066 -0.55979049 32
12.544537 -7.7911806 -1.8062766 5
7.8098235 -4.8516927 -1.777052 5
10.363338 -4.1227083 -1.7630031 5
5.6876712 -3.536938 -1.7840424 6
7.135994 -2.8303092 -1.7615122 6
27.871384 -20.185158 7.3010564 3
18.795017 -9.0194674 5.1813555 27
26.277817 -19.002848 4.5526996 25
18.770847 -9.0239792 3.662518 31
30.837954 -22.285044 2.6514361 1
26.20241 -12.61827 3.053015 8
57.648739 -41.649002 0 1
59.225368 -28.543709 2.2946417 1
20.611847 -9.9398022 -0.80188072 1
10.465207 -7.5787554 -1.8064936 4
16.162989 -7.7948928 -1.8760473 4
6.8536229 -4.9742537 -1.7941916 6
9.1306467 -4.4024558 -1.7811975 5
5.1239591 -3.7311864 -1.8063927 8
6.4455595 -3.1057265 -1.7738601 5
25.232729 -15.655212 6.8365946 27
18.629251 -7.3357439 5.3479896 19
21.669889 -13.439213 4.0239916 14
19.992325 -7.9123917 4.1687694 29
30.144777 -11.970509 3.972465 1
61.461784 -24.463495 3.4650326 1
28.338894 -17.589491 -1.752009 1
29.825867 -11.880066 -0.55979049 32
12.544537 -7.7911806 -1.8062766 5
7.8098235 -4.8516927 -1.777052 5
10.363338 -4.1227083 -1.7630031 5
5.6876712 -3.536938 -1.7840424 6
7.135994 -2.8303092 -1.7615122 6
27.860014 -20.325569 7.3166361 4
18.84421 -9.1241283 5.2037015 17
26.197317 -19.084253 4.5502644 13
18.818989 -9.1281214 3.6781311 17
31.084572 -22.628902 2.6794429 26
26.115715 -12.689015 3.0480499 9
10.436687 -7.6137795 -1.8061465 4
16.155802 -7.861052 -1.8783913 4
6.8421383 -5.00248 -1.7957524 6
9.1218672 -4.4375305 -1.7824998 5
5.1147771 -3.7518954 -1.80777 8
6.4324975 -3.127147 -1.7732558 6
25.033342 -15.652778 6.7972875 18
18.634953 -7.413219 5.3570366 22
21.375767 -13.36032 3.9779453 20
19.875702 -7.9466166 4.1501822 1
28.943451 -18.090979 2.9831233 3
22.548456 -9.046484 2.9745569 8
30.009167 -12.07458 -0.56402272 31
12.506749 -7.8283381 -1.8047553 5
7.7949204 -4.8802266 -1.7775282 5
10.346595 -4.1579394 -1.7626116 5
5.6752896 -3.5567701 -1.7840424 7
7.1305947 -2.8570106 -1.7626352 6
27.860014 -20.325569 7.3166361 4
18.84421 -9.1241283 5.2037015 17
26.197317 -19.084253 4.5502644 13
18.818989 -9.1281214 3.6781311 17
31.084572 -22.628902 2.6794429 26
26.115715 -12.689015 3.0480499 9
58.265018 -42.404633 0 1
25.01438 -12.164785 0.9701187 1
20.208557 -9.8324547 -0.78750038 1
10.436687 -7.6137795 -1.8061465 4
16.155802 -7.861052 -1.8783913 4
6.8421383 -5.00248 -1.7957524 6
9.1218672 -4.4375305 -1.7824998 5
5.1147771 -3.7518954 -1.80777 8
6.4324975 -3.127147 -1.7732558 6
25.033342 -15.652778 6.7972875 18
18.634953 -7.413219 5.3570366 22
21.375767 -13.36032 3.9779453 20
19.875702 -7.9466166 4.1501822 1
32.708832 -20.444761 3.3716197 2
30.213364 -12.119989 3.9870689 2
61.373703 -24.676958 3.4649019 1
30.009167 -12.07458 -0.56402272 31
12.506749 -7.8283381 -1.8047553 5
7.7949204 -4.8802266 -1.7775282 5
10.346595 -4.1579394 -1.7626116 5
5.6752896 -3.5567701 -1.7840424 7
7.1305947 -2.8570106 -1.7626352 6
14.979538 -11.002377 3.9398074 10
18.916315 -9.2365856 5.2320876 5
26.24367 -19.251575 4.5694008 9
19.036335 -9.3116198 3.7267046 15
31.055616 -22.765779 2.6834438 13
25.193781 -12.344583 2.9450893 15
20.830828 -10.220715 -0.81310439 1
10.411382 -7.6483469 -1.8061465 4
16.127415 -7.9134893 -1.8781309 5
6.8255115 -5.0251422 -1.7957524 6
9.1093121 -4.4688396 -1.7829341 5
5.1042395 -3.7702651 -1.8084587 9
6.4220924 -3.1484606 -1.7732558 5
24.731894 -15.578586 6.7293425 7
18.520617 -7.4389892 5.3311882 25
21.406569 -13.478502 3.9919934 16
19.976692 -8.063899 4.1768713 26
28.581938 -17.99708 2.9519649 18
22.506834 -9.1165533 2.9730361 3
30.04307 -12.204121 -0.5654189 31
12.497511 -7.8803582 -1.8071892 4
7.7807698 -4.9073591 -1.7780044 5
10.339615 -4.1950088 -1.7637862 5
5.6634641 -3.5755706 -1.7840424 7
7.1301169 -2.8842893 -1.7648813 6
14.979538 -11.002377 3.9398074 10
23.158709 -11.307573 6.4073896 1
28.489145 -20.899231 4.960825 6
19.036335 -9.3116198 3.7267046 15
31.055616 -22.765779 2.6834438 13
25.195934 -12.340184 2.9450893 15
58.605995 -42.950836 0 1
24.740597 -12.133273 0.96104479 1
20.830828 -10.220715 -0.81310439 1
10.412717 -7.6465297 -1.8061465 4
16.127415 -7.9134893 -1.8781309 5
6.8263884 -5.0239506 -1.7957524 6
9.1093121 -4.4688396 -1.7829341 5
5.1048975 -3.7693741 -1.8084587 9
6.4220924 -3.1484606 -1.7732558 5
24.734613 -15.574269 6.7293425 7
18.520617 -7.4389892 5.3311882 25
21.40892 -13.474765 3.9919934 16
19.976692 -8.063899 4.1768713 26
32.560131 -20.494347 3.3629043 1
28.602047 -11.58413 3.7792723 18
61.286903 -24.878466 3.4646401 1
30.045197 -12.198883 -0.5654189 31
12.498886 -7.8781772 -1.8071892 4
7.7807698 -4.9073591 -1.7780044 5
10.340346 -4.1932039 -1.7637862 5
5.6640882 -3.5745819 -1.7840424 7
7.1306205 -2.883045 -1.7648813 6
14.917454 -11.037137 3.9335749 9
24.133266 -11.887817 6.6888342 17
26.104635 -19.290089 4.5568748 6
18.917603 -9.3355274 3.7097905 13
31.104349 -22.968872 2.694577 6
25.132645 -12.418148 2.9427376 42
25.143749 -12.44001 0.97840732 18
20.692019 -10.242391 -0.80907089 13
10.395912 -7.6901956 -1.807882 4
16.095236 -7.9675303 -1.8776098 5
6.8107734 -5.0492058 -1.7962725 6
9.1024857 -4.5049767 -1.7846706 5
5.093636 -3.7886059 -1.8091472 8
6.4154124 -3.1730082 -1.7744645 6
24.678038 -15.659208 6.7287812 9
18.387108 -7.4600353 5.3001704 30
21.332563 -13.530896 3.9865303 14
20.021151 -8.1632166 4.192122 27
28.429564 -18.03306 2.9423778 22
25.653671 -10.494893 3.3941042 9
30.305412 -12.427885 -0.57113457 31
12.465026 -7.9177661 -1.8062766 5
7.767735 -4.9371228 -1.7789568 5
10.327931 -4.2302074 -1.7641776 5
5.6556501 -3.5969243 -1.7853355 7
7.1160016 -2.9060786 -1.7637583 6
14.917454 -11.037137 3.9335749 9
24.133266 -11.887817 6.6888342 17
29.580667 -21.8594 5.1643653 1
18.917603 -9.3355274 3.7097905 13
31.104349 -22.968872 2.694577 6
25.130476 -12.422535 2.9427376 42
58.99873 -43.556084 0 1
25.143749 -12.44001 0.97840732 18
20.692019 -10.242391 -0.80907089 13
10.39457 -7.6920099 -1.807882 4
16.095236 -7.9675303 -1.8776098 5
6.8098922 -5.0503941 -1.7962725 6
9.1024857 -4.5049767 -1.7846706 5
5.0929742 -3.7894948 -1.8091472 8
6.4154124 -3.1730082 -1.7744645 6
27.797312 -17.645563 7.5811796 2
18.387108 -7.4600353 5.3001704 30
21.3302 -13.534619 3.9865303 14
20.021151 -8.1632166 4.192122 27
32.598351 -20.685612 3.3746703 4
28.731407 -11.753402 3.8017864 1
61.158108 -25.075201 3.462285 1
30.303246 -12.433169 -0.57113457 31
12.463645 -7.9199419 -1.8062766 5
7.767735 -4.9371228 -1.7789568 5
10.327191 -4.2320099 -1.7641776 5
5.6550221 -3.5979116 -1.7853355 7
7.1154943 -2.9073205 -1.7637583 6
14.794537 -11.026283 3.911243 14
23.066166 -11.462499 6.4037662 13
31.789734 -23.664259 5.564836 2
18.977476 -9.4475803 3.7280054 20
28.89905 -21.496309 2.509836 2
25.23604 -12.584509 2.9602461 2
20.638256 -10.305628 -0.8083694 57
10.369641 -7.7297273 -1.808229 4
16.080675 -8.0303288 -1.8791727 5
6.7980962 -5.0785275 -1.7978331 6
9.0955153 -4.5411196 -1.7864069 5
5.0874043 -3.8130202 -1.811902 8
6.4042974 -3.1953831 -1.7744645 6
24.608168 -15.741675 6.7254119 8
18.508461 -7.5845795 5.3428202 24
21.757137 -13.912329 4.0755014 15
20.035652 -8.2508001 4.2011776 24
28.382164 -18.149216 2.9443388 26
23.598576 -9.750844 3.1263728 2
30.255043 -12.536958 -0.57104731 29
12.44846 -7.9714303 -1.808102 4
7.7525196 -4.9655309 -1.7794329 5
10.321485 -4.2718067 -1.7657437 5
5.6424284 -3.6176293 -1.7853355 6
7.1030498 -2.9312127 -1.7631968 5
14.794537 -11.026283 3.911243 14
23.066166 -11.462499 6.4037662 13
31.789734 -23.664259 5.564836 2
18.977476 -9.4475803 3.7280054 20
35.003735 -26.038321 3.0405753 3
29.997709 -14.95859 3.5194733 1
59.476219 -44.23024 0 1
20.638256 -10.305628 -0.8083694 57
10.369641 -7.7297273 -1.808229 4
16.080675 -8.0303288 -1.8791727 5
6.7980962 -5.0785275 -1.7978331 6
9.0955153 -4.5411196 -1.7864069 5
5.0874043 -3.8130202 -1.811902 8
6.4042974 -3.1953831 -1.7744645 6
27.963329 -17.888216 7.6435089 4
18.508461 -7.5845795 5.3428202 24
21.757137 -13.912329 4.0755014 15
20.035652 -8.2508001 4.2011776 24
32.458805 -20.756336 3.367698 2
25.57789 -10.568275 3.3889322 8
61.037914 -25.27516 3.460453 1
30.255043 -12.536958 -0.57104731 29
12.44846 -7.9714303 -1.808102 4
7.7525196 -4.9655309 -1.7794329 5
10.321485 -4.2718067 -1.7657437 5
5.6424284 -3.6176293 -1.7853355 6
7.1030498 -2.9312127 -1.7631968 5
14.789216 -11.106875 3.9205911 10
22.989302 -11.529564 6.3941026 13
27.104591 -20.330704 4.7569361 13
18.949322 -9.5203896 3.7293065 3
28.790136 -21.579647 2.5072265 20
30.042627 -15.118726 3.5312326 18
59.931866 -44.911221 0 1
20.611504 -10.386824 -0.80880785 55
10.34322 -7.7691693 -1.8085761 4
16.028927 -8.0780239 -1.8765681 5
6.7794371 -5.1034098 -1.7978331 7
9.094203 -4.5821776 -1.7894458 5
5.0753117 -3.8330908 -1.8125907 8
6.3990436 -3.2221053 -1.7762777 6
24.540068 -15.825161 6.7226043 22
18.598808 -7.7013063 5.377069 23
21.884487 -14.10705 4.1090608 20
28.336384 -18.266617 2.9465177 2
23.54207 -9.8286715 3.1236348 9
30.566292 -12.797341 -0.57781017 30
12.41916 -8.0170031 -1.808102 4
7.7404537 -4.9979072 -1.7808614 5
10.308037 -4.3105597 -1.7661353 5
5.6311598 -3.6395969 -1.7859821 6
7.0945077 -2.958163 -1.7637583 5
14.789216 -11.106875 3.9205911 10
22.989302 -11.529564 6.3941026 13
29.486858 -22.118061 5.1754994 9
23.677433 -11.89528 4.6613078 1
36.081367 -27.046104 3.1428614 1
30.042627 -15.118726 3.5312326 18
59.931866 -44.911221 0 1
20.611504 -10.386824 -0.80880785 55
10.34322 -7.7691693 -1.8085761 4
16.028923 -8.0780296 -1.8765681 5
6.7794371 -5.1034098 -1.7978331 7
9.0934029 -4.5837646 -1.7894458 5
5.0753117 -3.8330908 -1.8125907 8
6.3984814 -3.223222 -1.7762777 6
24.540068 -15.825161 6.7226043 22
18.597464 -7.7045522 5.377069 23
21.884487 -14.10705 4.1090608 20
32.208775 -20.763159 3.349613 2
23.540354 -9.8327808 3.1236348 9
60.928902 -25.504522 3.4597991 1
30.564056 -12.802676 -0.57781017 30
12.41916 -8.0170031 -1.808102 4
7.7395811 -4.9992585 -1.7808614 5
10.307284 -4.3123589 -1.7661353 5
5.6305242 -3.6405797 -1.7859821 6
7.0945077 -2.958163 -1.7637583 5
14.660658 -11.090545 3.8967011 22
21.950945 -11.104975 6.1156778 10
26.926802 -20.344585 4.7381477 23
23.594036 -11.956713 4.6530681 7
28.603182 -21.595844 2.4974849 30
29.892122 -15.173992 3.5197349 16
60.201721 -45.442493 0 1
20.588484 -10.465499 -0.80933398 26
10.318011 -7.8067212 -1.8089231 4
16.042744 -8.1553364 -1.8815167 5
6.7674251 -5.1314793 -1.7993938 7
9.0817366 -4.6177092 -1.790314 5
5.0657244 -3.8536961 -1.8139681 9
6.3936801 -3.2488325 -1.7780908 6
24.484678 -15.910726 6.7226043 16
18.619474 -7.7899175 5.3912854 26
21.980061 -14.277523 4.1363764 20
19.135223 -8.0447626 4.0243607 27
32.071362 -20.833401 3.3428586 32
23.341259 -9.8454847 3.1017294 17
30.569832 -12.930703 -0.5787701 31
12.399418 -8.0657167 -1.8093189 4
20.263836 -8.5688848 -1.9179533 6
7.7220831 -5.0262442 -1.7808614 5
10.298993 -4.351191 -1.7673098 4
5.6157589 -3.6588929 -1.7853355 6
7.081893 -2.9819655 -1.7631968 5
14.660658 -11.090545 3.8967011 22
21.950945 -11.104975 6.1156778 10
29.55958 -22.334295 5.201942 9
23.594036 -11.956713 4.6530681 7
28.603182 -21.595844 2.4974849 30
29.89477 -15.168774 3.5197349 16
60.201721 -45.442493 0 1
20.588484 -10.465499 -0.80933398 26
10.319374 -7.8049202 -1.8089231 4
16.042747 -8.1553307 -1.8815167 5
6.7683206 -5.1302977 -1.7993938 7
9.0825424 -4.6161242 -1.790314 5
5.0663967 -3.8528123 -1.8139681 9
6.3942475 -3.2477167 -1.7780908 6
24.487455 -15.90645 6.7226043 16
18.620834 -7.7866678 5.3912854 26
21.982553 -14.273687 4.1363764 20
19.136627 -8.0414228 4.0243607 27
33.850391 -21.980757 3.5280645 1
23.342976 -9.8414106 3.1017294 17
60.816391 -25.694773 3.4582291 1
30.574341 -12.920037 -0.5787701 31
12.400826 -8.0635529 -1.8093189 4
20.266827 -8.5618114 -1.9179533 6
7.7229605 -5.0248961 -1.7808614 5
10.300511 -4.3475962 -1.7673098 4
5.6170354 -3.6569324 -1.7853355 6
7.0824137 -2.9807293 -1.7631968 5
14.845534 -11.308077 3.9559071 18
21.866455 -11.15346 6.1023912 18
26.934053 -20.490738 4.751369 18
23.484095 -11.999046 4.6391897 15
28.477816 -21.64982 2.4927883 38
29.603024 -15.144409 3.4912505 31
21.238525 -10.884628 -0.83634102 1
10.297374 -7.8420982 -1.8096173 4
16.031105 -8.2164221 -1.8833399 5
6.7473841 -5.1497445 -1.7983533 7
9.0759506 -4.6507072 -1.7920505 5
5.0478711 -3.8652046 -1.811902 9
6.3791232 -3.2666924 -1.7768821 6
18.54373 -7.826786 5.3764224 27
22.01156 -14.396521 4.1508145 22
19.105337 -8.1029224 4.0234079 27
32.072445 -20.97768 3.3498309 4
23.337616 -9.930419 3.1053803 27
30.595711 -13.048802 -0.57999176 30
12.394776 -8.1182308 -1.8123614 4
20.210831 -8.6172562 -1.9153439 6
7.7185698 -5.0585527 -1.7837183 5
10.276949 -4.3778629 -1.7657437 5
5.6109357 -3.6795137 -1.7872754 6
7.0724897 -3.004199 -1.7631968 5
14.845534 -11.308077 3.9559071 18
21.866455 -11.15346 6.1023912 18
29.465652 -22.417206 5.198463 9
23.484095 -11.999046 4.6391897 15
28.477816 -21.64982 2.4927883 38
29.603024 -15.144409 3.4912505 31
35.152435 -26.715654 0 1
58.889133 -30.163324 2.3092995 1
21.238525 -10.884628 -0.83634102 1
10.297374 -7.8420982 -1.8096173 4
16.031105 -8.2164221 -1.8833399 5
6.7473841 -5.1497445 -1.7983533 7
9.0759506 -4.6507072 -1.7920505 5
5.0478711 -3.8652046 -1.811902 9
6.3791232 -3.2666924 -1.7768821 6
18.54373 -7.826786 5.3764224 27
22.01156 -14.396521 4.1508145 22
19.105337 -8.1029224 4.0234079 27
34.075348 -22.287844 3.5592225 16
23.337616 -9.930419 3.1053803 27
60.733154 -25.897287 3.45836 1
30.595711 -13.048802 -0.57999176 30
12.394776 -8.1182308 -1.8123614 4
20.210831 -8.6172562 -1.9153439 6
7.7185698 -5.0585527 -1.7837183 5
10.276949 -4.3778629 -1.7657437 5
5.6109357 -3.6795137 -1.7872754 6
7.0724897 -3.004199 -1.7631968 5
14.534391 -11.151364 3.8831978 19
21.831701 -11.231938 6.1035991 4
26.825029 -20.556013 4.7447586 9
23.301994 -12.008774 4.6114335 19
28.30109 -21.671755 2.4839163 36
29.596384 -15.271591 3.4967384 31
35.311058 -27.031214 0 36
21.389063 -11.0562 -0.84379423 4
10.275827 -7.8825183 -1.8106585 4
16.004536 -8.2734728 -1.8836004 5
6.7390556 -5.1807222 -1.8009543 7
9.0509109 -4.6778402 -1.790314 5
5.0438585 -3.8901465 -1.8153454 9
6.3741474 -3.2922773 -1.7786952 6
25.314163 -16.68964 6.980907 29
18.431866 -7.8555074 5.3518667 19
21.911692 -14.440652 4.1414495 16
19.275482 -8.2545376 4.0653481 21
31.930407 -21.044275 3.3426409 3
23.188803 -9.9628658 3.0901685 18
30.889776 -13.301793 -0.58644927 31
12.360147 -8.1573458 -1.8114486 4
20.162323 -8.6798773 -1.9136043 6
7.7070074 -5.0895228 -1.7851468 6
10.261605 -4.4137096 -1.7657437 4
5.5920138 -3.695081 -1.7853355 6
7.0552416 -3.0259914 -1.7615122 5
14.534391 -11.151364 3.8831978 19
24.053715 -12.374879 6.7256761 4
29.353819 -22.494318 5.1925478 16
23.301994 -12.008774 4.6114335 19
28.30109 -21.671755 2.4839163 36
60.452766 -46.28133 0 1
58.856728 -30.40654 2.3121786 1
