# .PCD v0.7 - Point Cloud Data file format
VERSION 0.7
FIELDS x y z intensity
SIZE 4 4 4 4
TYPE F F F F
COUNT 1 1 1 1
WIDTH 1422
HEIGHT 1
VIEWPOINT 0 0 0 1 0 0 0
POINTS 1422
DATA ascii
32.363655 -13.080579 0.60869628 6
55.951054 -11.785172 2.9947941 18
18.277697 -7.3903332 -1.0348485 40
31.362537 -6.6137576 -0.55887419 47
7.7037735 -3.1170199 -1.0146425 3
10.300463 -2.1734178 -0.91613799 2
7.6442251 -3.0944588 -1.5932519 4
10.505863 -2.2109451 -1.6968367 5
6.4801488 -2.6268961 -1.8629307 10
7.0011687 -1.466065 -1.6407838 26
19.271334 -9.4404211 4.5500464 14
13.383867 -3.7944548 3.4546394 28
20.640888 -10.093831 3.2242925 23
30.776825 -8.7459211 5.6297393 16
58.747528 -28.711954 4.5585146 32
38.317753 -10.909993 4.1837516 39
17.346884 -8.471034 0 7
51.495373 -14.690398 1.8687807 9
15.992216 -7.8195076 -1.2392644 5
24.987944 -7.1342697 -0.91078568 12
7.7317495 -3.7847791 -1.2018996 1
8.4729395 -2.4205031 -0.91940117 3
7.7200818 -3.7907219 -1.8222828 7
8.0591459 -2.3008881 -1.4716693 4
5.8253179 -2.8717742 -1.8511565 7
6.7964835 -1.9381862 -1.7521025 16
7.7149172 -1.5982189 2.0988727 32
30.298391 -12.233429 5.1579833 6
7.7403936 -1.6175179 1.528914 23
39.404297 -15.910612 3.7147956 28
55.951054 -11.785172 2.9947941 18
18.278986 -7.3871431 -1.0348485 40
31.363689 -6.6082897 -0.55887419 47
7.7043176 -3.1156752 -1.0146425 3
10.300841 -2.1716201 -0.91613799 2
7.6442251 -3.0944588 -1.5932519 4
10.506248 -2.2091115 -1.6968367 5
6.480607 -2.6257651 -1.8629307 10
7.0014248 -1.464843 -1.6407838 26
20.658764 -10.209995 4.8865867 14
13.22364 -3.7989721 3.4165902 25
20.627729 -10.176778 3.2277718 25
30.653835 -8.8267365 5.6128254 27
58.769974 -28.977518 4.5680823 2
31.944046 -9.2162638 3.4907281 38
17.373268 -8.5591679 0 7
51.44138 -14.869367 1.8686935 3
16.157152 -7.970212 -1.2542247 6
24.746881 -7.1589804 -0.90289408 12
7.6763244 -3.7908957 -1.1953052 1
8.5145979 -2.4645705 -0.92487067 7
7.7002311 -3.8143873 -1.8207222 7
8.0250483 -2.3214865 -1.4668941 2
5.808805 -2.8888762 -1.8490903 7
7.7281981 -1.6291131 2.1040423 30
23.018835 -9.3873596 3.9229238 9
7.7899179 -1.6562338 1.5398756 4
37.183155 -15.164833 3.5101974 6
53.172157 -21.697395 1.0018117 3
55.936428 -11.986158 2.9962335 9
18.079739 -7.3801265 -1.0250028 21
31.350203 -6.7198229 -0.55904865 43
7.7025828 -3.1463048 -1.0158594 4
10.222574 -2.1924484 -0.90983182 3
7.5924907 -3.1043961 -1.5846809 3
10.18214 -2.1782446 -1.6455479 2
6.4691672 -2.6474555 -1.8622841 10
7.1035066 -1.5120286 -1.6660526 23
20.658764 -10.209995 4.8865867 14
13.22364 -3.7989721 3.4165902 25
20.627729 -10.176778 3.2277718 25
30.653835 -8.8267365 5.6128254 27
38.454277 -11.101385 4.2030892 4
17.373268 -8.5591679 0 7
51.44138 -14.869367 1.8686935 3
16.157152 -7.970212 -1.2542247 6
24.746881 -7.1589804 -0.90289408 12
7.6756625 -3.7922351 -1.1953052 1
8.5145979 -2.4645705 -0.92487067 7
7.6995649 -3.8157313 -1.8207222 7
8.0250483 -2.3214865 -1.4668941 2
5.8083005 -2.88989 -1.8490903 7
7.7281981 -1.6291131 2.1040423 30
23.017197 -9.3913774 3.9229238 9
15.30919 -3.2503896 3.0325685 1
39.758469 -16.22337 3.7537978 16
78.612556 -32.095436 1.4815347 1
55.936428 -11.986158 2.9962335 9
18.078451 -7.3832817 -1.0250028 21
31.349031 -6.7252884 -0.55904865 43
7.702034 -3.147649 -1.0158594 4
10.22219 -2.1942327 -0.90983182 3
7.5924907 -3.1043961 -1.5846809 3
10.181761 -2.1800218 -1.6455479 2
6.4687052 -2.6485844 -1.8622841 10
7.1032424 -1.5132684 -1.6660526 23
20.760864 -10.350814 4.9193063 13
13.030936 -3.7929304 3.3700855 22
20.609812 -10.257548 3.2305553 25
30.490475 -8.8950787 5.5885386 28
31.893347 -9.3283968 3.4888988 36
17.363432 -8.629777 0 7
52.655201 -15.419536 1.9147607 1
16.368109 -8.1455059 -1.272838 7
24.493959 -7.1785822 -0.89456391 14
7.7465591 -3.8610127 -1.2084939 1
8.4940119 -2.4907811 -0.92356843 7
7.6883855 -3.843679 -1.8212423 7
7.9365602 -2.3259625 -1.452134 2
5.8003249 -2.9112265 -1.8497791 7
7.4393783 -2.177588 -1.922538 13
7.7508049 -1.6621399 2.1117969 24
22.972858 -9.466959 3.9209726 10
15.324139 -3.3095 3.037811 24
37.07206 -15.278238 3.5049682 4
39.863735 -8.6526461 4.9971466 4
52.951313 -21.834005 0.99915022 3
54.696522 -11.920412 2.9319911 2
17.918715 -7.3911166 -1.0173888 24
31.359562 -6.8421321 -0.5596596 50
7.6909995 -3.174515 -1.0158594 4
10.129297 -2.2113466 -0.90222085 4
7.5294385 -3.109324 -1.5737292 5
9.9834738 -2.1741278 -1.6146179 2
6.446032 -2.6656082 -1.8584044 14
7.0526743 -1.5282806 -1.6553835 26
20.760864 -10.350814 4.9193063 13
13.030936 -3.7929304 3.3700855 22
20.609812 -10.257548 3.2305553 25
30.490475 -8.8950787 5.5885386 28
17.363432 -8.629777 0 7
57.513161 -16.841944 2.0915267 1
16.368109 -8.1455059 -1.272838 7
24.493959 -7.1785822 -0.89456391 14
7.7465591 -3.8610127 -1.2084939 1
8.4940119 -2.4907811 -0.92356843 7
7.6883855 -3.843679 -1.8212423 7
7.9365602 -2.3259625 -1.452134 2
5.8003249 -2.9112265 -1.8497791 7
7.4393783 -2.177588 -1.922538 13
7.7508049 -1.6621399 2.1117969 24
22.972858 -9.466959 3.9209726 10
15.324139 -3.3095 3.037811 24
39.425289 -16.248169 3.7276511 16
45.349106 -9.8426342 5.6853375 1
78.53701 -32.384895 1.4822328 9
54.696522 -11.920412 2.9319911 2
17.953333 -7.4053993 -1.0193579 24
31.359562 -6.8421321 -0.5596596 50
7.6909995 -3.174515 -1.0158594 4
10.129297 -2.2113466 -0.90222085 4
7.5294385 -3.109324 -1.5737292 5
9.9834738 -2.1741278 -1.6146179 2
6.446032 -2.6656082 -1.8584044 14
7.0526743 -1.5282806 -1.6553835 26
18.833349 -9.4757214 4.4700661 2
13.09606 -3.8639953 3.39062 22
20.600832 -10.347468 3.2350783 20
30.429333 -8.998395 5.583334 32
31.785048 -9.4233265 3.4807978 18
17.3585 -8.7068157 0 6
52.325279 -15.531385 1.9048144 4
15.288566 -7.67802 -1.1909046 20
24.271088 -7.2099848 -0.88737375 9
7.730144 -3.8882654 -1.2081468 1
8.5086603 -2.5289752 -0.92617291 6
7.6655149 -3.8674219 -1.8191615 6
7.8925781 -2.3445289 -1.4456222 1
5.7853298 -2.9302917 -1.8484018 7
7.4243689 -2.2027714 -1.9207249 12
7.7989354 -1.7023507 2.1266594 8
22.956242 -9.5586901 3.9240944 9
15.326288 -3.3688006 3.0406706 22
36.864079 -15.350818 3.4905875 28
39.613678 -8.7505484 4.9697647 4
50.279778 -11.151403 2.6972642 13
17.767069 -7.4048681 -1.0102998 14
31.356236 -6.9618974 -0.56005228 57
7.6930528 -3.208416 -1.0176849 4
10.01414 -2.2247393 -0.89265287 4
7.5111976 -3.1340635 -1.5723007 5
9.8934689 -2.1925771 -1.6013063 3
6.4362187 -2.6892161 -1.8584044 14
7.1065083 -1.5671978 -1.6694217 25
20.838556 -10.485112 4.9468317 10
13.09606 -3.8639953 3.39062 22
20.600832 -10.347468 3.2350783 20
30.429333 -8.998395 5.583334 32
39.782677 -11.793851 4.3575306 3
17.3585 -8.7068157 0 6
57.041462 -16.931068 2.0766072 4
15.287225 -7.6806879 -1.1909046 20
24.271088 -7.2099848 -0.88737375 9
7.730144 -3.8882654 -1.2081468 1
8.5086584 -2.528981 -0.92617291 6
7.6655149 -3.8674219 -1.8191615 6
7.892169 -2.3459063 -1.4456222 1
5.7853298 -2.9302917 -1.8484018 7
7.4239845 -2.2040675 -1.9207249 12
9.5589695 -2.0872047 2.6087282 1
22.956242 -9.5586901 3.9240944 9
15.325701 -3.3714757 3.0406706 22
39.363171 -16.3916 3.7274332 1
45.759235 -10.115736 5.7416224 2
52.820179 -22.006786 0.99819034 3
58.162502 -12.909612 3.1205313 1
17.776287 -7.408711 -1.0108249 14
31.355019 -6.96737 -0.56005228 57
7.6930528 -3.208416 -1.0176849 4
10.004026 -2.2243292 -0.89178306 4
7.5106506 -3.1353743 -1.5723007 5
9.8930855 -2.1943038 -1.6013063 3
6.4357495 -2.6903396 -1.8584044 14
7.1065083 -1.5671978 -1.6694217 25
18.76309 -9.522583 4.4612374 4
13.212664 -3.948565 3.4244413 25
30.418968 -9.1109152 5.5872378 32
31.909126 -9.5814018 3.498045 26
17.394913 -8.8012295 0 5
52.246819 -15.706749 1.903942 18
15.10907 -7.6573024 -1.1790756 35
24.047188 -7.2349334 -0.8800959 15
7.851171 -3.983624 -1.229318 1
8.4973984 -2.5579503 -0.9259125 6
7.645432 -3.8908257 -1.817601 7
7.7707624 -2.3394024 -1.4247844 1
5.7750659 -2.9504685 -1.8484018 6
7.4046297 -2.2264791 -1.917703 14
9.3936491 -2.0855651 2.5654325 25
22.879486 -9.620575 3.9166801 13
15.103065 -3.377877 2.9987304 23
37.253342 -15.665746 3.53264 20
39.431232 -8.8619633 4.9509015 13
38.817848 -16.331699 0.73448449 6
50.116798 -11.308149 2.6907222 58
17.628366 -7.4193783 -1.0038674 18
31.357328 -7.0828309 -0.56053221 52
7.6840935 -3.2362139 -1.017989 4
9.9403229 -2.2466335 -0.88678157 3
7.5652375 -3.1892328 -1.5861094 6
9.7239666 -2.1925104 -1.5750748 3
6.4151959 -2.7080894 -1.8551711 17
7.1271462 -1.5978402 -1.6755985 22
20.90867 -10.61204 4.97228 7
13.212664 -3.948565 3.4244413 25
30.418968 -9.1109152 5.5872378 32
39.700787 -11.920494 4.3530879 1
33.911621 -17.162518 0 1
56.747528 -17.059595 2.0680568 4
15.110407 -7.654665 -1.1790756 35
24.047188 -7.2349334 -0.8800959 15
11.738257 -5.9582152 -1.8405063 1
8.4974003 -2.5579445 -0.9259125 6
7.645432 -3.8908257 -1.817601 7
7.7711706 -2.3380461 -1.4247844 1
5.7750659 -2.9504685 -1.8484018 6
7.4050179 -2.2251866 -1.917703 14
9.3940125 -2.0839255 2.5654325 25
22.879486 -9.620575 3.9166801 13
15.103656 -3.375241 2.9987304 23
39.140423 -16.459391 3.711745 1
45.943344 -10.316331 5.7690039 1
52.768379 -22.201694 0.99867028 1
50.118771 -11.299401 2.6907222 58
17.628366 -7.4193783 -1.0038674 18
31.358564 -7.0773582 -0.56053221 52
7.6840935 -3.2362139 -1.017989 4
9.9407148 -2.2448986 -0.88678157 3
7.5657945 -3.1879122 -1.5861094 6
9.72435 -2.1908131 -1.5750748 3
6.4156685 -2.7069697 -1.8551711 17
7.1271462 -1.5978402 -1.6755985 22
18.72756 -9.5869055 4.4607177 4
13.252209 -4.0108171 3.4383326 23
30.330429 -9.199893 5.576829 31
32.003941 -9.7317781 3.5121562 43
17.415297 -8.8880444 0 3
52.566936 -16.003256 1.91764 16
15.116903 -7.7243938 -1.181685 41
23.849705 -7.2664156 -0.87378258 25
11.360439 -5.8162575 -1.7842813 8
8.5003119 -2.5912125 -0.92721474 6
7.6318045 -3.9174895 -1.817601 6
7.8100691 -2.3794973 -1.4334668 2
5.7561889 -2.9661999 -1.8456471 5
7.3879218 -2.2481987 -1.9152855 14
20.438419 -8.6822243 5.1104593 6
9.4267349 -2.1257157 2.5764179 7
22.877584 -9.7138939 3.9221432 10
15.039127 -3.4159982 2.9882452 25
37.345139 -15.857992 3.5465848 20
39.321793 -8.9744616 4.9408617 9
38.726093 -16.452438 0.73383003 13
50.137428 -11.487657 2.6938624 30
17.492077 -7.4339862 -0.99756604 18
31.379961 -7.1973882 -0.56136119 46
7.6818833 -3.2669029 -1.019206 4
9.8041506 -2.2501156 -0.87525648 3
7.5365558 -3.2066119 -1.5823001 3
9.5986938 -2.1977952 -1.5558903 3
6.4061799 -2.7293479 -1.8551711 17
7.1429048 -1.6275662 -1.6806521 21
20.882385 -10.690534 4.9748769 7
13.252209 -4.0108171 3.4383326 23
30.330429 -9.199893 5.576829 31
32.003941 -9.7317781 3.5121562 43
33.90271 -17.306934 0 1
56.27174 -17.130981 2.0528755 3
15.116903 -7.7243938 -1.181685 41
23.849705 -7.2664156 -0.87378258 25
11.360439 -5.8162575 -1.7842813 8
8.5003119 -2.5912125 -0.92721474 6
7.6318045 -3.9174895 -1.817601 6
7.8100691 -2.3794973 -1.4334668 2
5.7561889 -2.9661999 -1.8456471 5
7.3879218 -2.2481987 -1.9152855 14
20.438419 -8.6822243 5.1104593 6
9.4267349 -2.1257157 2.5764179 7
22.877584 -9.7138939 3.9221432 10
15.039127 -3.4159982 2.9882452 25
37.345139 -15.857992 3.5465848 20
45.931244 -10.48216 5.7720466 6
52.676754 -22.37989 0.9984085 1
50.137428 -11.487657 2.6938624 30
17.492077 -7.4339862 -0.99756604 18
31.379961 -7.1973882 -0.56136119 46
7.6818833 -3.2669029 -1.019206 4
9.8041506 -2.2501156 -0.87525648 3
7.5365558 -3.2066119 -1.5823001 3
9.5986938 -2.1977952 -1.5558903 3
6.4061799 -2.7293479 -1.8551711 17
7.1429048 -1.6275662 -1.6806521 21
20.831903 -10.756627 4.9717603 7
13.170858 -4.0364475 3.4208179 24
22.086576 -11.385283 3.4873295 14
30.326376 -9.3143826 5.5820332 32
31.869976 -9.8127117 3.5011809 44
33.090874 -17.038269 0 18
52.443901 -16.166046 1.915197 27
15.129745 -7.7976899 -1.1848161 186
23.738243 -7.3231149 -0.87062591 9
11.326871 -5.8490572 -1.7821988 8
8.4817123 -2.6179373 -0.92617291 5
7.6159134 -3.9429808 -1.8170809 7
7.7287784 -2.3842647 -1.420009 3
5.7415361 -2.9840553 -1.8442698 6
7.3614807 -2.2682641 -1.9104503 12
20.244556 -8.6834002 5.069468 17
9.4263201 -2.160223 2.5783565 14
22.88666 -9.8121834 3.9295576 10
15.113204 -3.4883182 3.0054026 26
37.397137 -16.034388 3.5568256 18
39.302311 -9.1144667 4.9423833 4
38.613297 -16.563864 0.7327829 25
17.344429 -7.442811 -0.99060845 20
31.376554 -7.3119831 -0.56175387 51
7.6863918 -3.3005543 -1.0213357 3
9.7525749 -2.2741642 -0.8713423 6
7.5185523 -3.2299926 -1.5808717 3
9.4947567 -2.2089524 -1.5402297 3
6.3921781 -2.7497835 -1.853878 14
7.1134434 -1.6470096 -1.675037 23
23.964916 -12.375081 5.7206664 3
13.170858 -4.0364475 3.4208179 24
22.086576 -11.385283 3.4873295 14
30.326376 -9.3143826 5.5820332 32
31.869976 -9.8127117 3.5011809 44
33.090874 -17.038269 0 18
52.443901 -16.166046 1.915197 27
15.129745 -7.7976899 -1.1848161 186
23.738243 -7.3231149 -0.87062591 9
11.326871 -5.8490572 -1.7821988 8
8.4817123 -2.6179373 -0.92617291 5
7.6159134 -3.9429808 -1.8170809 7
7.7287784 -2.3842647 -1.420009 3
5.7415361 -2.9840553 -1.8442698 6
7.3614807 -2.2682641 -1.9104503 12
20.244556 -8.6834002 5.069468 17
9.4263201 -2.160223 2.5783565 14
22.88666 -9.8121834 3.9295576 10
15.113204 -3.4883182 3.0054026 26
37.397137 -16.034388 3.5568256 18
46.04425 -10.677164 5.7909093 16
52.600609 -22.564613 0.99845213 1
60.599117 -14.106513 3.25896 1
17.344429 -7.442811 -0.99060845 20
31.376554 -7.3119831 -0.56175387 51
7.6863918 -3.3005543 -1.0213357 3
9.7525749 -2.2741642 -0.8713423 6
7.5185523 -3.2299926 -1.5808717 3
9.4947567 -2.2089524 -1.5402297 3
6.3921781 -2.7497835 -1.853878 14
7.1134434 -1.6470096 -1.675037 23
20.685503 -10.768043 4.9452739 20
13.266311 -4.1138558 3.449204 20
30.318834 -9.4222031 5.5863705 31
34.504856 -17.919165 2.7095373 1
31.910843 -9.9412622 3.5092816 16
32.745758 -16.998142 0 30
38.546371 -12.022754 1.4088054 13
15.061761 -7.8259602 -1.1815109 99
23.735294 -7.4084916 -0.87141508 16
11.318391 -5.8923059 -1.7839341 8
8.4801054 -2.6482716 -0.92695433 4
7.6006274 -3.9670815 -1.8165605 7
7.6949744 -2.4018185 -1.4152337 7
5.7252254 -2.9997284 -1.8422037 6
7.360867 -2.2948277 -1.9122636 12
19.786417 -8.5646515 4.9616551 18
9.4143991 -2.190378 2.577064 6
22.842665 -9.8831215 3.9276066 10
15.048983 -3.5261152 2.9949176 26
37.487759 -16.220627 3.5705528 23
41.247715 -9.7096338 5.1912513 4
38.542095 -16.684866 0.73247743 20
47.382965 -11.196785 2.5498075 3
17.205109 -7.4506712 -0.98404467 20
31.388624 -7.4246168 -0.56240833 45
7.6981711 -3.335896 -1.0243781 3
9.6140928 -2.2755759 -0.85959971 2
7.5303144 -3.2646735 -1.5856333 3
9.3840361 -2.216073 -1.5233945 3
6.3918839 -2.7748141 -1.8564644 8
7.0296717 -1.6522459 -1.6565065 19
20.685503 -10.768043 4.9452739 20
13.266311 -4.1138558 3.449204 20
30.318834 -9.4222031 5.5863705 31
34.504856 -17.919165 2.7095373 1
37.444237 -11.664721 4.1184211 2
32.745758 -16.998142 0 30
38.546371 -12.022754 1.4088054 13
15.061761 -7.8259602 -1.1815109 99
23.735294 -7.4084916 -0.87141508 16
11.318391 -5.8923059 -1.7839341 8
8.4801054 -2.6482716 -0.92695433 4
7.6006274 -3.9670815 -1.8165605 7
7.6949744 -2.4018185 -1.4152337 7
5.7252254 -2.9997284 -1.8422037 6
7.360867 -2.2948277 -1.9122636 12
19.786417 -8.5646515 4.9616551 18
12.220905 -2.8419235 3.3479862 1
22.842665 -9.8831215 3.9276066 10
15.048983 -3.5261152 2.9949176 26
37.487759 -16.220627 3.5705528 23
46.0569 -10.841161 5.7969937 18
52.514023 -22.733955 0.99823397 1
60.622467 -14.324032 3.2627542 6
17.205109 -7.4506712 -0.98404467 20
31.388624 -7.4246168 -0.56240833 45
7.6981711 -3.335896 -1.0243781 3
13.610983 -3.2196641 -1.218183 1
7.5303144 -3.2646735 -1.5856333 3
9.3840361 -2.216073 -1.5233945 3
6.3918839 -2.7748141 -1.8564644 8
7.0296717 -1.6522459 -1.6565065 19
20.610983 -10.82085 4.9364443 8
13.31668 -4.1804743 3.4661148 20
20.835558 -10.920296 3.3011856 5
30.205906 -9.502862 5.5716248 25
34.459774 -18.048758 2.7109289 1
31.982655 -10.086235 3.5210412 13
32.73716 -17.139017 0 30
38.463665 -12.144446 1.4073222 81
15.078526 -7.9016514 -1.18499 53
23.687847 -7.4845252 -0.87062591 12
11.288987 -5.9271727 -1.7825459 8
8.470809 -2.6778564 -0.92695433 5
7.5780821 -3.9890289 -1.8144798 6
7.6724572 -2.4242177 -1.412629 7
5.7210917 -3.0230672 -1.8442698 6
7.3412437 -2.3168604 -1.9092417 10
20.164892 -8.8122168 5.064414 21
9.3549852 -2.2110312 2.5628476 16
22.762772 -9.9430246 3.919802 10
15.187003 -3.6143763 3.0249431 25
37.807468 -16.515896 3.6065044 37
39.094555 -9.3471718 4.9241285 18
17.567842 -7.6770754 0.33403903 2
43.532108 -10.447763 2.344389 28
17.073776 -7.4646692 -0.97800601 22
31.403833 -7.5440583 -0.56315005 50
7.6978455 -3.3677223 -1.0258993 3
9.5310135 -2.2911115 -0.85285854 2
7.5368581 -3.2988157 -1.5894427 3
9.2657833 -2.2223783 -1.5053847 3
6.3711014 -2.7922597 -1.8532313 6
7.0617795 -1.6858002 -1.665491 19
20.610983 -10.82085 4.9364443 8
13.31668 -4.1804743 3.4661148 20
24.043253 -12.60223 3.8102112 8
30.205906 -9.502862 5.5716248 25
37.282356 -11.757225 4.105094 16
32.73716 -17.139017 0 30
38.463665 -12.144446 1.4073222 81
15.078526 -7.9016514 -1.18499 53
23.687847 -7.4845252 -0.87062591 12
11.288987 -5.9271727 -1.7825459 8
8.470809 -2.6778564 -0.92695433 5
7.5780821 -3.9890289 -1.8144798 6
7.6724572 -2.4242177 -1.412629 7
5.7210917 -3.0230672 -1.8442698 6
7.3412437 -2.3168604 -1.9092417 10
20.164892 -8.8122168 5.064414 21
9.3549852 -2.2110312 2.5628476 16
22.762772 -9.9430246 3.919802 10
15.187003 -3.6143763 3.0249431 25
37.807468 -16.515896 3.6065044 37
44.227989 -10.573916 5.5712476 1
38.403461 -16.784262 0.73095036 40
47.363007 -11.366774 2.5508544 1
17.073776 -7.4646692 -0.97800601 22
31.403833 -7.5440583 -0.56315005 50
7.6978455 -3.3677223 -1.0258993 3
13.737703 -3.3002717 -1.2305781 1
7.5368581 -3.2988157 -1.5894427 3
9.2657833 -2.2223783 -1.5053847 3
6.3711014 -2.7922597 -1.8532313 6
7.0617795 -1.6858002 -1.665491 19
18.550825 -9.8256922 4.45085 2
13.29202 -4.226315 3.4636989 18
20.832594 -11.01627 3.3071003 2
30.166182 -9.6120138 5.5707574 2
32.696228 -17.270569 0 34
38.421272 -12.2861 1.4074094 81
15.115597 -7.9918499 -1.1902088 25
23.576969 -7.5446501 -0.86755687 35
11.249687 -5.9592319 -1.7797693 8
8.4704103 -2.711916 -0.92799622 5
7.5655689 -4.0179248 -1.8149999 6
7.6517954 -2.4485734 -1.4104583 7
5.7057333 -3.0417521 -1.8428924 5
7.3165264 -2.3385861 -1.9050109 13
20.174803 -8.9047604 5.0750833 28
11.970101 -2.8741305 3.2846582 19
22.723915 -10.025391 3.9194117 15
15.145027 -3.6631002 3.0192239 25
37.673767 -16.622185 3.5995321 34
44.029785 -10.697298 5.5511675 38
17.55788 -7.7494888 0.33438808 3
43.607517 -10.635036 2.3505385 23
16.934401 -7.4777732 -0.97157347 21
31.402687 -7.6656246 -0.56362998 45
7.7036071 -3.4039404 -1.0283333 3
9.4064083 -2.2977161 -0.84242076 2
7.515739 -3.3224463 -1.587538 3
9.147212 -2.2294815 -1.4873748 3
6.3674479 -2.8185263 -1.8551711 6
22.036217 -11.67267 5.2885652 6
13.29202 -4.226315 3.4636989 18
23.705854 -12.536299 3.7639363 14
32.340862 -10.30479 5.9727888 6
46.090004 -14.720205 5.0816512 1
32.696228 -17.270569 0 34
38.421272 -12.2861 1.4074094 81
15.114202 -7.9944878 -1.1902088 25
23.576969 -7.5446501 -0.86755687 35
11.249687 -5.9592319 -1.7797693 8
8.4704084 -2.7119217 -0.92799622 5
7.5655689 -4.0179248 -1.8149999 6
7.6513677 -2.4499085 -1.4104583 7
5.7057333 -3.0417521 -1.8428924 5
7.3161182 -2.3398631 -1.9050109 13
20.174803 -8.9047604 5.0750833 28
11.969601 -2.8762197 3.2846582 19
22.723915 -10.025391 3.9194117 15
15.144388 -3.6657436 3.0192239 25
37.673767 -16.622185 3.5995321 34
44.02792 -10.704983 5.5511675 38
38.442303 -16.969326 0.73287016 63
54.590492 -13.32249 2.9431124 1
16.934401 -7.4777732 -0.97157347 21
31.401346 -7.6711054 -0.56362998 45
7.7036071 -3.4039404 -1.0283333 3
9.4060078 -2.2993579 -0.84242076 2
7.5151587 -3.3237581 -1.587538 3
9.146821 -2.2310779 -1.4873748 3
6.3669558 -2.8196378 -1.8551711 6
18.537981 -9.9019127 4.4560432 3
13.147859 -4.2310896 3.429877 25
23.90222 -12.747154 3.8022089 9
29.933264 -9.6530352 5.5338936 18
43.492722 -14.058296 4.8004699 13
32.622505 -17.377541 0 36
38.461353 -12.447063 1.4104631 26
15.191813 -8.1035652 -1.1985587 1
23.52672 -7.6192074 -0.86668009 61
11.213534 -5.9902935 -1.7773398 8
8.4703512 -2.7445354 -0.92903793 5
7.5428767 -4.0396872 -1.812919 7
7.6357427 -2.4743271 -1.409156 7
5.6887331 -3.0582321 -1.8408264 6
7.2986736 -2.3624015 -1.9025935 14
20.234829 -9.0157862 5.0981064 28
12.022841 -2.9334164 3.3021057 22
22.774496 -10.142833 3.9342403 13
14.623832 -3.5939839 2.9177094 22
37.531342 -16.716097 3.5914705 9
43.708412 -10.789057 5.5155716 2
17.583237 -7.8341322 0.33539158 2
43.260483 -10.718573 2.3339217 6
16.814707 -7.4951577 -0.96619111 21
31.418053 -7.7914939 -0.5644154 46
7.7052746 -3.4368782 -1.0301588 3
9.1730967 -2.2764962 -0.82219744 2
7.5079927 -3.3519728 -1.5884904 3
9.0502882 -2.2410767 -1.4728887 3
6.3526659 -2.8398731 -1.853878 6
7.3452611 -1.8089267 -1.7356819 17
22.131216 -11.822133 5.3212848 8
13.147859 -4.2310896 3.429877 25
23.90222 -12.747154 3.8022089 9
32.419514 -10.454635 5.9940391 1
45.988663 -14.864944 5.0761638 1
32.622505 -17.377541 0 36
51.699612 -16.73056 1.8963512 1
15.193229 -8.100913 -1.1985587 1
23.52672 -7.6192074 -0.86668009 61
11.213534 -5.9902935 -1.7773398 8
8.4703531 -2.7445297 -0.92903793 5
7.5428767 -4.0396872 -1.812919 7
7.6361742 -2.4729943 -1.409156 7
5.6887331 -3.0582321 -1.8408264 6
7.2990861 -2.3611276 -1.9025935 14
20.234829 -9.0157862 5.0981064 28
12.023353 -2.931318 3.3021057 22
22.774496 -10.142833 3.9342403 13
14.62446 -3.5914316 2.9177094 22
37.531342 -16.716097 3.5914705 9
46.791756 -11.54116 5.904695 9
38.28009 -17.057623 0.73090672 46
53.310043 -13.197574 2.876384 2
16.814707 -7.4951577 -0.96619111 21
31.419411 -7.7860103 -0.5644154 46
7.7052746 -3.4368782 -1.0301588 3
9.1734943 -2.2748952 -0.82219744 2
7.5085778 -3.3506622 -1.5884904 3
9.0506783 -2.2394972 -1.4728887 3
6.3531623 -2.8387644 -1.853878 6
7.3452611 -1.8089267 -1.7356819 17
18.576092 -10.001603 4.4731822 3
12.753109 -4.1508398 3.330224 22
20.724422 -11.140228 3.3018816 8
29.795752 -9.7178965 5.5143776 31
45.97456 -15.028953 5.0800834 20
32.820183 -17.622845 0 36
51.669968 -16.910458 1.897311 1
15.131136 -8.1323509 -1.1957754 1
23.522694 -7.7041798 -0.86746925 64
11.178353 -6.0192242 -1.7749103 8
8.4493914 -2.7687349 -0.92773569 4
7.5294399 -4.0646777 -1.812919 7
7.6185718 -2.4952402 -1.4074194 8
5.674336 -3.0747871 -1.839449 5
7.2842984 -2.3830581 -1.9007803 13
20.151493 -9.0588608 5.0846291 28
12.001843 -2.9682779 3.2988746 22
21.560505 -9.6878824 3.7297626 9
14.636285 -3.6458333 2.9224753 22
37.414371 -16.812897 3.5855873 18
33.438503 -8.3666553 4.2219424 13
17.548042 -7.8882976 0.33521709 2
43.422733 -10.903657 2.3445201 6
16.673643 -7.498642 -0.95949602 21
31.424934 -7.8980737 -0.56498253 46
7.7164617 -3.4725988 -1.0332011 3
9.117589 -2.2931771 -0.81784838 2
7.5019007 -3.3775594 -1.5894427 3
8.9234438 -2.2395055 -1.4533128 4
6.3327065 -2.8548515 -1.8506447 7
7.3534045 -1.8368081 -1.7390511 16
21.366341 -11.504625 5.1462626 7
12.753109 -4.1508398 3.330224 22
23.899063 -12.847452 3.8084717 5
29.795752 -9.7178965 5.5143776 31
45.97718 -15.020927 5.0800834 20
32.820183 -17.622845 0 36
59.532169 -19.483261 2.1861916 1
15.131136 -8.1323509 -1.1957754 1
23.522694 -7.7041798 -0.86746925 64
11.179402 -6.0172729 -1.7749103 8
8.4493914 -2.7687349 -0.92773569 4
7.530149 -4.0633636 -1.812919 7
7.6185718 -2.4952402 -1.4074194 8
5.6748724 -3.0737967 -1.839449 5
7.2842984 -2.3830581 -1.9007803 13
20.153072 -9.0553436 5.0846291 28
12.001843 -2.9682779 3.2988746 22
21.562195 -9.6841192 3.7297626 9
14.636285 -3.6458333 2.9224753 22
53.553909 -24.055058 5.1332555 3
43.464867 -10.873944 5.4891028 18
37.854679 -17.010778 0.72379488 63
53.144909 -13.343894 2.8698421 9
16.674952 -7.4957323 -0.95949602 21
31.42631 -7.8925948 -0.56498253 46
7.7170672 -3.4712517 -1.0332011 3
9.1179895 -2.2915859 -0.81784838 2
7.5019007 -3.3775594 -1.5894427 3
8.9238338 -2.2379479 -1.4533128 4
6.3332047 -2.8537462 -1.8506447 7
7.3537254 -1.8355247 -1.7390511 16
18.573301 -10.083894 4.4809723 4
12.699368 -4.1824365 3.3199568 24
23.827955 -12.916635 3.8042963 7
29.492765 -9.7331285 5.4645033 39
32.789242 -17.753967 0 36
15.168427 -8.2207851 -1.2009941 1
23.52886 -7.7972426 -0.86869687 57
11.149628 -6.0515323 -1.773522 7
8.390111 -2.7817912 -0.92226619 2
7.5180669 -4.0907936 -1.8134394 7
7.5981293 -2.5179496 -1.4052489 8
5.6577826 -3.0901268 -1.837383 6
7.2598133 -2.4031386 -1.8965496 12
20.088066 -9.1105413 5.0762067 28
9.1662474 -2.3020952 2.5195518 15
21.557499 -9.772583 3.7348359 7
14.975634 -3.785816 2.9930112 27
37.360676 -16.937904 3.5858049 3
39.486969 -10.025781 4.990757 35
17.580971 -7.9732928 0.33635148 1
53.05204 -13.517615 2.8673561 20
16.546385 -7.5074654 -0.95358866 22
31.444592 -8.0139685 -0.56581157 43
7.7207179 -3.5053518 -1.0353308 3
7.4811282 -3.3996618 -1.587538 3
6.3232045 -2.8758359 -1.8506447 6
7.3425493 -1.8599892 -1.737928 16
21.308859 -11.569799 5.142108 18
12.699368 -4.1824365 3.3199568 24
23.827955 -12.916635 3.8042963 7
29.492765 -9.7331285 5.4645033 39
32.789242 -17.753967 0 36
59.651176 -19.752989 2.1930842 2
15.168427 -8.2207851 -1.2009941 1
23.52886 -7.7972426 -0.86869687 57
11.148571 -6.0534782 -1.773522 7
8.390111 -2.7817912 -0.92226619 2
7.5173526 -4.0921059 -1.8134394 7
7.5981293 -2.5179496 -1.4052489 8
5.6572437 -3.0911143 -1.837383 6
7.2598133 -2.4031386 -1.8965496 12
20.086477 -9.1140471 5.0762067 28
9.1662474 -2.3020952 2.5195518 15
21.555794 -9.7763453 3.7348359 7
14.975634 -3.785816 2.9930112 27
53.531155 -24.281019 5.1395741 13
39.486969 -10.025781 4.990757 35
37.587219 -17.056438 0.71986806 48
53.05204 -13.517615 2.8673561 20
16.545073 -7.5103531 -0.95358866 22
31.443193 -8.0194502 -0.56581157 43
7.7201056 -3.5066993 -1.0353308 3
9.0419512 -2.3077767 -0.81175959 1
7.4811282 -3.3996618 -1.587538 3
6.3227024 -2.8769393 -1.8506447 6
7.3422251 -1.8612708 -1.737928 16
18.462919 -10.107551 4.4627953 4
12.73993 -4.2451372 3.3344519 25
20.585321 -11.251382 3.2921393 9
29.414236 -9.8212051 5.4562631 34
39.674519 -13.277062 4.3935924 16
32.823612 -17.92104 0 29
54.455154 -18.243729 2.0042779 2
15.115569 -8.2605209 -1.1990806 1
23.503868 -7.8801203 -0.86878449 61
11.120859 -6.0887885 -1.7724808 7
8.3166962 -2.7897265 -0.91523391 2
7.5030227 -4.1183214 -1.8134394 8
7.577621 -2.5405467 -1.4030783 9
5.6506271 -3.1131651 -1.8387603 6
7.2467799 -2.4269261 -1.8953408 13
19.990309 -9.154686 5.0599222 30
9.1698589 -2.3370535 2.522783 4
21.811171 -9.9841337 3.7851746 7
15.000365 -3.8478127 3.0006368 26
37.119453 -16.992821 3.5685918 4
33.631592 -8.6648655 4.2538872 40
17.619806 -8.0689058 0.33766043 2
44.517879 -11.509501 2.4079771 4
16.427973 -7.5264578 -0.94833755 24
31.444054 -8.1366701 -0.5663352 41
7.725862 -3.5419025 -1.0377648 3
7.4692159 -3.425755 -1.587538 3
6.3060389 -2.8959672 -1.8487049 6
7.3215251 -1.883256 -1.7345588 12
21.216869 -11.615917 5.1296434 15
12.73993 -4.2451372 3.3344519 25
20.585321 -11.251382 3.2921393 9
29.414236 -9.8212051 5.4562631 34
39.674519 -13.277062 4.3935924 16
32.823612 -17.92104 0 29
59.465775 -19.922205 2.1888092 4
15.114126 -8.2631588 -1.1990806 1
23.503868 -7.8801203 -0.86878449 61
11.120859 -6.0887885 -1.7724808 7
8.3166943 -2.7897322 -0.91523391 2
7.5030227 -4.1183214 -1.8134394 8
7.5771775 -2.5418692 -1.4030783 9
5.6506271 -3.1131651 -1.8387603 6
7.246356 -2.4281907 -1.8953408 13
19.990309 -9.154686 5.0599222 30
12.460083 -3.1762023 3.4313467 12
21.811171 -9.9841337 3.7851746 7
14.999693 -3.8504307 3.0006368 26
53.604584 -24.5403 5.1548266 9
45.702358 -11.781601 5.7823906 1
37.438824 -17.146942 0.71816647 34
53.108486 -13.739474 2.8731132 22
16.427973 -7.5264578 -0.94833755 24
31.442633 -8.1421576 -0.5663352 41
7.725862 -3.5419025 -1.0377648 3
9.0647783 -2.3490083 -0.81458652 1
7.4686179 -3.4270587 -1.587538 3
6.3055329 -2.8970678 -1.8487049 6
7.3215251 -1.883256 -1.7345588 12
21.264051 -11.743273 5.1514564 17
12.830032 -4.3274522 3.3622339 27
21.304838 -11.746443 3.4142637 10
29.396704 -9.9352531 5.4597325 29
37.81937 -12.810667 4.1931591 20
32.992004 -18.170296 0 24
15.225672 -8.3968182 -1.2103877 3
23.500854 -7.9750428 -0.86974901 51
11.089801 -6.1247168 -1.7710925 6
8.3511496 -2.8353729 -0.92018253 2
7.4836011 -4.1434226 -1.8123989 10
7.5608158 -2.567251 -1.4017761 9
5.6328793 -3.1303482 -1.8366944 6
7.2259202 -2.450841 -1.892319 10
20.122454 -9.3045874 5.102037 30
9.1023626 -2.3571398 2.5066278 27
22.079268 -10.204928 3.8382452 7
14.959355 -3.8985813 2.9953942 28
36.961979 -17.084866 3.5594406 6
32.585007 -8.5289202 4.1254978 52
17.633221 -8.153367 0.33848941 6
44.444378 -11.672745 2.4064071 75
16.289255 -7.5352492 -0.94190508 23
31.48027 -8.2751293 -0.56755686 42
7.7173319 -3.5722811 -1.0383732 3
7.4916329 -3.4709237 -1.5951567 3
8.6096735 -2.2602198 -1.4059392 6
6.2861104 -2.9160922 -1.8461185 6
7.3145733 -1.9100782 -1.7345588 9
21.264051 -11.743273 5.1514564 17
12.830032 -4.3274522 3.3622339 27
21.304838 -11.746443 3.4142637 10
29.396704 -9.9352531 5.4597325 29
39.587914 -13.40963 4.3894114 1
32.992004 -18.170296 0 24
54.3335 -18.42474 2.0022712 1
15.225672 -8.3968182 -1.2103877 3
23.500854 -7.9750428 -0.86974901 51
11.089801 -6.1247168 -1.7710925 6
8.3511496 -2.8353729 -0.92018253 2
7.4836011 -4.1434226 -1.8123989 10
7.5608158 -2.567251 -1.4017761 9
5.6328793 -3.1303482 -1.8366944 6
7.2259202 -2.450841 -1.892319 10
20.122454 -9.3045874 5.102037 30
9.1023626 -2.3571398 2.5066278 27
22.079268 -10.204928 3.8382452 7
14.959355 -3.8985813 2.9953942 28
53.579838 -24.766914 5.1611452 1
32.585007 -8.5289202 4.1254978 52
37.40976 -17.299789 0.71882099 1
44.444378 -11.672745 2.4064071 75
16.289255 -7.5352492 -0.94190508 23
31.48027 -8.2751293 -0.56755686 42
7.7173319 -3.5722811 -1.0383732 3
9.0103388 -2.3702009 -0.81045491 1
7.4916329 -3.4709237 -1.5951567 3
8.6096735 -2.2602198 -1.4059392 6
6.2861104 -2.9160922 -1.8461185 6
7.3145733 -1.9100782 -1.7345588 9
21.289158 -11.854319 5.1675563 9
12.780407 -4.3604655 3.3531747 22
21.324286 -11.854431 3.4240057 13
30.44286 -10.407289 5.660965 32
37.588608 -12.878947 4.1725149 35
33.122887 -18.393391 0 4
15.220241 -8.4632511 -1.2123011 2
23.51305 -8.0708151 -0.87123972 42
11.057541 -6.1573644 -1.7693573 6
8.3059263 -2.8524015 -0.91627574 2
7.4626875 -4.1659408 -1.8108382 13
7.5355072 -2.5880334 -1.3987371 10
5.6240139 -3.1511679 -1.837383 5
7.2150264 -2.4752626 -1.8917146 14
19.981684 -9.3242855 5.0745215 29
9.1571531 -2.4054337 2.5240753 4
15.061924 -3.9814732 3.0187473 17
53.508854 -24.961161 5.1626701 20
32.48069 -8.6228838 4.1160665 51
17.62504 -8.2243834 0.33888209 5
44.446785 -11.839376 2.4087622 59
16.163321 -7.5455861 -0.93612891 23
31.485004 -8.3939753 -0.56816769 41
7.7295427 -3.6107547 -1.0417198 3
7.4594646 -3.487694 -1.5908711 3
8.5969572 -2.288991 -1.4051561 8
6.27808 -2.9390411 -1.846765 6
21.289158 -11.854319 5.1675563 9
12.780407 -4.3604655 3.3531747 22
21.324286 -11.854431 3.4240057 13
30.44286 -10.407289 5.660965 32
37.588608 -12.878947 4.1725149 35
33.122887 -18.393391 0 4
54.200321 -18.590782 1.9997411 1
15.221718 -8.4605942 -1.2123011 2
23.51305 -8.0708151 -0.87123972 42
11.057541 -6.1573644 -1.7693573 6
8.3059282 -2.8523958 -0.91627574 2
7.4626875 -4.1659408 -1.8108382 13
7.5359588 -2.5867183 -1.3987371 10
5.6240139 -3.1511679 -1.837383 5
7.2154584 -2.4740033 -1.8917146 14
19.981684 -9.3242855 5.0745215 29
12.883819 -3.3800077 3.5547717 15
15.062619 -3.9788444 3.0187473 17
56.059223 -26.150959 5.4088855 1
32.482197 -8.6172142 4.1160665 51
37.437481 -17.471498 0.72052258 1
44.448853 -11.831619 2.4087622 59
16.163321 -7.5455861 -0.93612891 23
31.486471 -8.3884802 -0.56816769 41
7.7295427 -3.6107547 -1.0417198 3
8.8604288 -2.3622837 -0.79762506 1
7.4600725 -3.4863923 -1.5908711 3
8.5973568 -2.2874904 -1.4051561 8
6.2785931 -2.9379454 -1.846765 6
20.710236 -11.621975 5.0361605 18
12.758996 -4.4004507 3.3513625 22
21.312933 -11.940815 3.428529 8
30.505917 -10.541951 5.6791801 31
37.611477 -13.026305 4.179832 61
30.151653 -16.874083 0 6
15.26102 -8.5488253 -1.2176939 2
23.50976 -8.15693 -0.87211657 41
11.028426 -6.1891489 -1.767969 6
8.3152151 -2.8864419 -0.91835934 2
7.4445715 -4.1882653 -1.809798 17
7.5180349 -2.6084685 -1.3970007 10
5.6030736 -3.1638851 -1.8339396 5
7.2003374 -2.4955359 -1.8899014 12
20.056448 -9.4403028 5.1014752 30
12.730156 -3.3849077 3.5153532 20
21.265257 -10.004862 3.7083006 7
15.139434 -4.0528617 3.0368578 14
32.422287 -8.7165108 4.1121116 49
17.645161 -8.3051424 0.33979833 6
53.337818 -14.386358 2.8933933 3
16.027538 -7.5470204 -0.92969644 23
31.480198 -8.4987068 -0.56856036 39
7.7309942 -3.6427157 -1.0435454 3
7.4839859 -3.5278618 -1.5984898 3
8.6040306 -2.3198373 -1.4075053 10
6.2644486 -2.9566875 -1.8454717 6
8.068553 -2.1652358 -1.9176168 14
20.710236 -11.621975 5.0361605 18
12.758996 -4.4004507 3.3513625 22
24.547997 -13.754021 3.9497323 4
30.505917 -10.541951 5.6791801 31
37.613747 -13.019739 4.179832 61
30.151653 -16.874083 0 6
53.958961 -18.708218 1.9931102 1
15.26102 -8.5488253 -1.2176939 2
23.50976 -8.15693 -0.87211657 41
11.029506 -6.1872244 -1.767969 6
8.3152151 -2.8864419 -0.91835934 2
7.445302 -4.1869659 -1.809798 17
7.5180349 -2.6084685 -1.3970007 10
5.6036258 -3.1629069 -1.8339396 5
7.2003374 -2.4955359 -1.8899014 12
20.058098 -9.4368029 5.1014752 30
12.730156 -3.3849077 3.5153532 20
21.267002 -10.00115 3.7083006 7
15.139434 -4.0528617 3.0368578 14
32.422287 -8.7165108 4.1121116 49
37.538467 -17.66246 0.72353309 1
59.356804 -16.009279 3.2201004 1
16.028856 -7.5442233 -0.92969644 23
31.481676 -8.4932175 -0.56856036 39
7.7316298 -3.6413665 -1.0435454 3
8.809679 -2.3784447 -0.79371083 1
7.4839859 -3.5278618 -1.5984898 3
8.604435 -2.3183355 -1.4075053 10
6.2649646 -2.9555938 -1.8454717 6
8.0689297 -2.1638277 -1.9176168 14
12.819153 -4.4713163 3.3712933 4
21.148268 -11.945715 3.4086969 7
29.899483 -10.449399 5.572926 30
37.793358 -13.229806 4.2049189 32
30.112164 -16.990292 0 25
15.370046 -8.6805687 -1.2288271 3
23.533014 -8.2571392 -0.87404567 40
10.997068 -6.2195888 -1.7662337 6
8.2957048 -2.9121578 -0.91731751 3
7.4221349 -4.2081008 -1.8077171 13
7.4902964 -2.6281788 -1.3935276 14
5.5904627 -3.181258 -1.8332509 5
7.1801348 -2.5166454 -1.8868796 10
18.856495 -8.9518986 4.8033042 22
12.869842 -3.4701381 3.5573566 21
22.217995 -10.543317 3.8807795 5
15.049398 -4.0851326 3.0216069 14
55.85305 -26.507229 5.4058347 9
32.427574 -8.8394175 4.1166749 44
17.617521 -8.3636093 0.33979833 6
56.213245 -15.372359 3.0523636 2
15.918987 -7.5604916 -0.9248392 25
31.533821 -8.6254692 -0.5700438 34
7.7435231 -3.6800539 -1.0468919 3
7.4893541 -3.5624013 -1.602299 3
6.2546091 -2.9774446 -1.8454717 5
8.0754366 -2.1958077 -1.9209861 14
12.819153 -4.4713163 3.3712933 4
24.482595 -13.829883 3.9469488 3
29.899483 -10.449399 5.572926 30
37.79105 -13.236402 4.2049189 32
30.112164 -16.990292 0 25
15.370046 -8.6805687 -1.2288271 3
23.533014 -8.2571392 -0.87404567 40
10.995983 -6.2215085 -1.7662337 6
8.2957048 -2.9121578 -0.91731751 3
7.4214001 -4.2093964 -1.8077171 13
7.4902964 -2.6281788 -1.3935276 14
5.5899072 -3.1822338 -1.8332509 5
7.1801348 -2.5166454 -1.8868796 10
18.854935 -8.9551897 4.8033042 22
12.869842 -3.4701381 3.5573566 21
22.216154 -10.547194 3.8807795 5
15.049398 -4.0851326 3.0216069 14
55.848427 -26.516975 5.4058347 9
32.427574 -8.8394175 4.1166749 44
37.254471 -17.695887 0.71930093 1
59.153664 -16.176214 3.2121193 4
15.917667 -7.5632696 -0.9248392 25
31.532316 -8.6309671 -0.5700438 34
7.7428808 -3.6814055 -1.0468919 3
8.7168188 -2.3877311 -0.78609991 1
7.4893541 -3.5624013 -1.602299 3
6.2540898 -2.9785361 -1.8454717 5
8.0750523 -2.1972172 -1.9209861 14
21.254902 -12.108955 3.4330521 2
29.970083 -10.597486 5.5933094 30
32.70834 -11.591223 3.6436007 28
30.064896 -17.1092 0 18
15.21679 -8.6676912 -1.2190856 4
23.540262 -8.3567057 -0.87544858 38
10.966657 -6.2580857 -1.7651925 6
8.2873182 -2.9433749 -0.91757798 2
7.3931913 -4.2292776 -1.8045958 10
7.4574099 -2.6473842 -1.3891865 15
5.5782065 -3.2027004 -1.8332509 5
7.1640029 -2.5405147 -1.8850664 10
18.685797 -8.9589272 4.7684894 30
12.894311 -3.527468 3.5676959 21
15.27805 -4.2073059 3.0706961 12
58.034855 -27.81629 5.6274281 1
32.385395 -8.9555674 4.115458 28
37.275005 -17.873384 0.72095883 31
56.238316 -15.600972 3.0568123 32
15.793049 -7.5751238 -0.91919428 27
7.7382836 -3.7140563 -1.0481089 3
8.7584076 -2.4336407 -0.79066652 3
7.4917326 -3.5972662 -1.6056322 3
6.234426 -2.9972515 -1.8428854 6
8.0481558 -2.2216234 -1.9164939 13
23.799387 -13.559126 3.8446567 10
29.970083 -10.597486 5.5933094 30
37.782124 -13.388941 4.2093611 1
30.064896 -17.1092 0 18
59.399712 -21.071712 2.1997151 9
15.215277 -8.6703472 -1.2190856 4
23.540262 -8.3567057 -0.87544858 38
10.966657 -6.2580857 -1.7651925 6
8.2873154 -2.9433806 -0.91757798 2
7.3931913 -4.2292776 -1.8045958 10
7.4569478 -2.6486859 -1.3891865 15
5.5782065 -3.2027004 -1.8332509 5
7.1635594 -2.541765 -1.8850664 10
18.685797 -8.9589272 4.7684894 30
12.893696 -3.5297184 3.5676959 21
15.277315 -4.2099724 3.0706961 12
32.383831 -8.9612188 4.115458 28
37.275005 -17.873384 0.72095883 31
58.662907 -16.284397 3.1888297 1
15.793049 -7.5751238 -0.91919428 27
7.7382836 -3.7140563 -1.0481089 3
8.7579832 -2.4351695 -0.79066652 3
7.4911041 -3.5985739 -1.6056322 3
6.2339034 -2.9983394 -1.8428854 6
8.0481558 -2.2216234 -1.9164939 13
19.25638 -11.077006 4.710526 9
24.02882 -13.80122 3.88954 15
30.00478 -10.727728 5.6067538 18
32.644272 -11.696941 3.6409879 9
30.018 -17.221508 0 26
15.280055 -8.7780886 -1.2267395 4
23.550926 -8.4531717 -0.87693918 32
10.934017 -6.2901511 -1.7634571 7
8.2746506 -2.9714508 -0.91731751 3
7.3720303 -4.2513909 -1.8030353 9
7.452292 -2.6763625 -1.3900548 21
5.5669928 -3.2221525 -1.8332509 6
7.1432261 -2.5626624 -1.8820444 13
18.691689 -9.0421343 4.7780352 35
12.80915 -3.5547097 3.5476635 23
21.346493 -10.322078 3.7414694 6
15.31926 -4.2791033 3.0821342 34
22.829258 -11.0392 2.2154989 1
32.390575 -9.0849209 4.1203256 34
36.391109 -17.606014 0.70503354 28
55.849106 -15.713705 3.0387564 26
15.685616 -7.5910478 -0.91446835 27
35.979691 -10.131699 -0.65185261 3
7.7610016 -3.7583561 -1.0529768 3
8.7398396 -2.4630282 -0.78979665 4
8.212326 -2.3100364 -1.3472116 6
6.2277431 -3.022191 -1.8441784 6
8.0309658 -2.2470829 -1.9142478 13
19.25638 -11.077006 4.710526 9
24.02882 -13.80122 3.88954 15
30.00478 -10.727728 5.6067538 18
66.196129 -37.998207 5.3214855 1
32.646317 -11.691244 3.6409879 9
30.018 -17.221508 0 26
59.083557 -21.192049 2.1907287 3
15.281588 -8.7754211 -1.2267395 4
23.550926 -8.4531717 -0.87693918 32
10.935114 -6.2882433 -1.7634571 7
8.2746534 -2.9714453 -0.91731751 3
7.3727722 -4.250104 -1.8030353 9
7.4527588 -2.6750617 -1.3900548 21
5.5675554 -3.2211804 -1.8332509 6
7.1436729 -2.5614154 -1.8820444 13
18.693266 -9.0388718 4.7780352 35
12.809769 -3.552474 3.5476635 23
29.265142 -14.145505 5.1310577 1
15.320005 -4.2764301 3.0821342 34
32.392162 -9.0792675 4.1203256 34
55.851845 -15.703957 3.0387564 26
15.686941 -7.5883093 -0.91446835 27
35.983219 -10.119144 -0.65185261 3
7.7616572 -3.7570019 -1.0529768 3
8.7406988 -2.4599771 -0.78979665 4
8.2131319 -2.3071694 -1.3472116 6
6.2287974 -3.0200169 -1.8441784 6
8.0313578 -2.2456813 -1.9142478 13
19.414165 -11.253667 4.7583065 25
21.193411 -12.265756 3.4365313 3
29.959776 -10.823823 5.6050186 18
66.08271 -38.225006 5.3225293 4
32.640099 -11.81128 3.6446462 48
30.073263 -17.386032 0 34
15.401325 -8.9122725 -1.2387426 10
23.590883 -8.5559216 -0.87948209 30
10.89921 -6.3157768 -1.7610276 6
8.2670918 -2.9997163 -0.91757798 3
7.356523 -4.2733002 -1.8025149 7
7.434588 -2.6964059 -1.3883182 19
5.558919 -3.2408378 -1.8339396 6
7.1328588 -2.584265 -1.88144 10
18.617208 -9.0783854 4.7662435 21
12.763039 -3.5851488 3.5379705 24
20.998774 -10.23543 3.6860578 8
15.265591 -4.3158703 3.0740323 30
32.414398 -9.2015362 4.1270189 37
36.234524 -17.670946 0.70307016 38
51.669437 -14.713392 2.8137116 18
15.580917 -7.6008749 -0.90974241 26
35.997551 -10.252101 -0.65272522 2
7.802669 -3.8088543 -1.0602785 4
8.7612381 -2.4971266 -0.79240608 3
8.1484289 -2.3182075 -1.3378152 6
6.2057333 -3.0342879 -1.8402988 6
8.0051117 -2.2670019 -1.9097555 12
19.414165 -11.253667 4.7583065 25
23.869368 -13.815082 3.8710992 4
32.640099 -11.81128 3.6446462 48
30.073263 -17.386032 0 34
15.401325 -8.9122725 -1.2387426 10
23.590883 -8.5559216 -0.87948209 30
10.89921 -6.3157768 -1.7610276 6
8.2670918 -2.9997163 -0.91757798 3
7.356523 -4.2733002 -1.8025149 7
7.434588 -2.6964059 -1.3883182 19
5.558919 -3.2408378 -1.8339396 6
7.1328588 -2.584265 -1.88144 10
18.617208 -9.0783854 4.7662435 21
12.763039 -3.5851488 3.5379705 24
20.998774 -10.23543 3.6860578 8
15.265591 -4.3158703 3.0740323 30
22.615374 -11.023557 2.1980679 1
32.414398 -9.2015362 4.1270189 37
36.234524 -17.670946 0.70307016 38
61.958481 -17.642363 3.3743606 1
15.580917 -7.6008749 -0.90974241 26
35.997551 -10.252101 -0.65272522 2
7.802669 -3.8088543 -1.0602785 4
8.7612381 -2.4971266 -0.79240608 3
8.1484289 -2.3182075 -1.3378152 6
6.2057333 -3.0342879 -1.8402988 6
8.0051117 -2.2670019 -1.9097555 12
19.345207 -11.304089 4.7510357 21
18.172043 -10.601301 2.9518611 3
64.968651 -37.883793 5.2433786 1
32.685062 -11.956743 3.654315 58
30.256453 -17.633177 0 32
15.223655 -8.8804932 -1.2269136 31
19.697271 -7.2220454 -0.73506469 22
10.872823 -6.3512845 -1.7603334 6
8.2519016 -3.0268443 -0.9170571 3
7.3457813 -4.3014269 -1.8035554 6
7.4020128 -2.713872 -1.3839771 26
5.5392876 -3.2553461 -1.831185 6
7.1146822 -2.605813 -1.8790226 13
18.489229 -9.0959911 4.7415361 26
12.738832 -3.6263764 3.5347393 25
20.701447 -10.180065 3.6400113 9
15.240994 -4.3664303 3.0721259 34
22.514181 -11.071654 2.191967 24
32.310535 -9.2940569 4.1178918 36
36.262333 -17.841463 0.70481539 39
51.687328 -14.913729 2.8175061 38
15.460217 -7.6089053 -0.90422887 28
7.9295578 -3.9051614 -1.0794457 10
8.7572546 -2.5290735 -0.79284102 3
8.3699665 -4.1257796 -1.8037173 12
8.0596085 -2.3234262 -1.3245035 6
6.1929388 -3.0548627 -1.8396521 6
7.9971495 -2.2949309 -1.9097555 13
19.345207 -11.304089 4.7510357 21
24.064745 -14.040581 3.9107637 4
64.968651 -37.883793 5.2433786 1
32.682976 -11.962447 3.654315 58
30.256453 -17.633177 0 32
15.223655 -8.8804932 -1.2269136 31
19.697271 -7.2220454 -0.73506469 22
10.871714 -6.3531823 -1.7603334 6
8.2519016 -3.0268443 -0.9170571 3
7.3450303 -4.3027091 -1.8035554 6
7.4020128 -2.713872 -1.3839771 26
5.5387192 -3.2563126 -1.831185 6
7.1146822 -2.605813 -1.8790226 13
18.48764 -9.0992184 4.7415361 26
12.738832 -3.6263764 3.5347393 25
20.699671 -10.183679 3.6400113 9
15.240994 -4.3664303 3.0721259 34
22.512251 -11.075583 2.191967 24
32.310535 -9.2940569 4.1178918 36
36.25922 -17.847792 0.70481539 39
51.687328 -14.913729 2.8175061 38
15.458888 -7.6116033 -0.90422887 28
7.9288764 -3.9065452 -1.0794457 10
8.756814 -2.5306017 -0.79284102 3
8.3699665 -4.1257796 -1.8037173 12
8.0592022 -2.3248332 -1.3245035 6
6.1924052 -3.055944 -1.8396521 6
7.9967489 -2.2963266 -1.9097555 13
19.259407 -11.348836 4.7401295 10
21.346191 -12.558998 3.475848 4
64.848709 -38.133034 5.2449446 30
32.725185 -12.114086 3.6639838 22
30.428688 -17.88332 0 41
15.249034 -8.9703865 -1.2316103 21
19.504339 -7.2325315 -0.72883898 20
10.837692 -6.3866982 -1.7585981 6
8.2454138 -3.0587971 -0.91757798 3
7.3292112 -4.3296008 -1.8035554 6
7.4012508 -2.7444048 -1.3857136 20
5.5184803 -3.2716835 -1.8284302 6
7.1050835 -2.6318722 -1.8790226 10
18.37999 -9.130064 4.7224441 28
12.727777 -3.6737113 3.5353856 22
19.81736 -9.8399086 3.4909456 17
14.901988 -4.3285728 3.0068326 26
22.469275 -11.156913 2.1917491 8
32.178585 -9.3839512 4.1054182 36
36.184605 -17.97612 0.70464087 38
51.670662 -15.114284 2.8195996 28
15.323577 -7.6148729 -0.89792764 31
7.9611597 -3.9587903 -1.0858347 1
8.7642126 -2.5675731 -0.7943632 1
8.3789568 -4.1684585 -1.8089552 10
7.951076 -2.3253014 -1.3080598 1
6.1833239 -3.0796967 -1.8402988 6
7.9695644 -2.3201838 -1.9052633 10
19.259407 -11.348836 4.7401295 10
24.045128 -14.147525 3.9159827 1
64.848709 -38.133034 5.2449446 30
32.725185 -12.114086 3.6639838 22
30.428688 -17.88332 0 41
15.247469 -8.9730463 -1.2316103 21
19.504339 -7.2325315 -0.72883898 20
10.837692 -6.3866982 -1.7585981 6
8.2454119 -3.0588026 -0.91757798 3
7.3292112 -4.3296008 -1.8035554 6
7.4007711 -2.7456965 -1.3857136 20
5.5184803 -3.2716835 -1.8284302 6
7.1046243 -2.633112 -1.8790226 10
18.37999 -9.130064 4.7224441 28
12.727135 -3.6759326 3.5353856 22
19.81736 -9.8399086 3.4909456 17
14.901231 -4.3311734 3.0068326 26
32.176945 -9.3895674 4.1054182 36
36.184605 -17.97612 0.70464087 38
51.668026 -15.123302 2.8195996 28
15.323577 -7.6148729 -0.89792764 31
7.9611597 -3.9587903 -1.0858347 1
10.979569 -3.2174695 -0.99594402 1
8.3782291 -4.1699209 -1.8089552 10
7.9506698 -2.326689 -1.3080598 1
6.1827865 -3.0807755 -1.8402988 6
7.9695644 -2.3201838 -1.9052633 10
19.259619 -11.439732 4.7499971 7
21.208536 -12.577853 3.4605389 5
64.899696 -38.46854 5.2599049 53
33.045979 -12.364142 3.7047503 4
30.359627 -17.985601 0 37
15.239644 -9.0402184 -1.2335238 27
19.308182 -7.2365775 -0.72243798 23
10.815333 -6.42449 -1.7585981 6
8.2393417 -3.0893109 -0.91809893 3
7.3161535 -4.3564105 -1.8040756 7
7.4095864 -2.778424 -1.3891865 29
5.5090895 -3.2921605 -1.8291188 6
7.081758 -2.6527936 -1.8753963 10
18.371964 -9.2061729 4.728621 27
18.824707 -9.4289923 3.3215883 27
14.721212 -4.3346872 2.9734709 24
22.383432 -11.211852 2.1871734 1
32.101131 -9.489171 4.0999417 31
35.89817 -17.990318 0.70027781 36
15.205401 -7.6224356 -0.89254528 30
7.8829765 -3.9542782 -1.0770117 3
8.346077 -4.1903286 -1.8051459 10
7.9306617 -2.3509257 -1.3061023 2
6.1633658 -3.0979986 -1.8377123 6
7.9567428 -2.3466129 -1.9041402 10
23.542 -13.984445 5.8079176 2
24.157412 -14.327374 3.9424257 5
64.899696 -38.46854 5.2599049 53
38.569653 -14.430458 4.3246036 1
30.359627 -17.985601 0 37
51.168213 -19.163729 1.9068211 1
15.241222 -9.0375586 -1.2335238 27
19.308182 -7.2365775 -0.72243798 23
10.815333 -6.42449 -1.7585981 6
8.2393446 -3.0893054 -0.91809893 3
7.3161535 -4.3564105 -1.8040756 7
7.4100709 -2.7771308 -1.3891865 29
5.5090895 -3.2921605 -1.8291188 6
7.0822206 -2.6515574 -1.8753963 10
18.371964 -9.2061729 4.728621 27
18.824707 -9.4289923 3.3215883 27
14.721968 -4.332118 2.9734709 24
32.102791 -9.4835691 4.0999417 31
35.89817 -17.990318 0.70027781 36
51.935959 -15.388862 2.8370013 3
15.205401 -7.6224356 -0.89254528 30
7.8829765 -3.9542782 -1.0770117 3
8.7575846 -2.5988574 -0.7945807 1
8.3468094 -4.1888714 -1.8051459 10
7.9310722 -2.3495414 -1.3061023 2
6.1639066 -3.0969229 -1.8377123 6
7.9567428 -2.3466129 -1.9041402 10
19.332779 -11.570115 4.7775226 21
24.001396 -14.342621 3.9246809 7
30.520908 -18.218185 0 30
15.24542 -9.1085243 -1.2363071 102
19.143877 -7.2475047 -0.71717691 24
10.785473 -6.4552302 -1.7572098 6
8.2267275 -3.1157305 -0.91783839 3
7.2974744 -4.37813 -1.8030353 7
7.3985186 -2.8008173 -1.3887523 30
5.4940252 -3.3079295 -1.8277415 6
7.0711193 -2.674171 -1.8747919 8
18.50223 -9.3483553 4.770174 25
13.749283 -4.0697427 3.8274701 18
18.713989 -9.4512835 3.3075402 31
14.787498 -4.4047108 2.989675 15
22.279438 -11.252328 2.1806366 3
32.054527 -9.5849991 4.0978122 37
35.775852 -18.077694 0.69905609 40
15.119886 -7.6424036 -0.88900089 69
12.937888 -6.5449057 -1.7734185 2
8.3503885 -4.2253952 -1.8089552 9
7.8475409 -2.3531766 -1.2935737 2
6.1536026 -3.117346 -1.8377123 6
7.9302392 -2.3674209 -1.899648 12
19.332779 -11.570115 4.7775226 21
24.001396 -14.342621 3.9246809 7
64.831726 -38.719353 5.2647758 53
30.520908 -18.218185 0 30
50.896408 -19.254633 1.899056 1
15.24542 -9.1085243 -1.2363071 102
19.143877 -7.2475047 -0.71717691 24
10.786599 -6.4533482 -1.7572098 6
8.2267275 -3.1157305 -0.91783839 3
7.2982383 -4.3768554 -1.8030353 7
7.3985186 -2.8008173 -1.3887523 30
5.4946027 -3.3069706 -1.8277415 6
7.0711193 -2.674171 -1.8747919 8
18.50386 -9.3451252 4.770174 25
13.749283 -4.0697427 3.8274701 18
18.715639 -9.4480171 3.3075402 31
14.787498 -4.4047108 2.989675 15
32.054527 -9.5849991 4.0978122 37
35.779007 -18.071447 0.69905609 40
47.546642 -14.260365 2.5996578 1
15.121221 -7.6397648 -0.88900089 69
12.93903 -6.5426469 -1.7734185 2
8.7302914 -2.6206388 -0.79284102 1
8.3503885 -4.2253952 -1.8089552 9
7.8479514 -2.3518069 -1.2935737 2
6.1541467 -3.116272 -1.8377123 6
7.9306521 -2.3660369 -1.899648 12
19.394867 -11.69944 4.8029709 30
18.537537 -11.164459 3.0364089 7
