# .PCD v0.7 - Point Cloud Data file format
VERSION 0.7
FIELDS x y z intensity
SIZE 4 4 4 4
TYPE F F F F
COUNT 1 1 1 1
WIDTH 1479
HEIGHT 1
VIEWPOINT 0 0 0 1 0 0 0
POINTS 1479
DATA ascii
-40.899944 4.4487371 0.71751201 13
nan nan nan 0
nan nan nan 0
-1.3940506 -0.090490863 -0.023779094 6
-13.621589 1.4877543 -1.6757573 8
nan nan nan 0
-1.3913562 0.15072669 -0.26474839 80
-1.4242227 -0.093510129 -0.22081585 54
-1.4151627 0.15407145 -0.3718102 97
-1.3763586 -0.091854244 -0.30996326 72
-30.358629 5.6333251 6.5500722 24
nan nan nan 0
-30.294155 5.5995131 4.3248038 25
-32.620373 0.15577501 5.7398963 30
-30.252113 5.5808349 2.1433108 16
-43.084644 0.2351537 4.5247755 13
-30.178993 5.561902 0 25
-1.3565807 0.0098513374 0.046154581 19
-19.977318 3.6911447 -1.4146124 8
-1.3465773 0.010028754 -0.046034709 35
-11.847583 2.1979983 -1.6843253 10
-1.3327832 0.0099529941 -0.13595678 75
-7.7358828 1.4434551 -1.6667413 8
-1.423463 0.010254836 -0.24484411 51
-5.7662382 1.0852094 -1.6714125 8
-1.3593986 0.0094295982 -0.32999238 68
-76.523895 8.6089163 17.742016 79
-16.630785 -1.1349453 4.4510574 2
-41.088985 4.614481 6.528451 35
-31.530069 -2.1006756 6.1299539 28
nan nan nan 0
-31.372499 -2.0516949 3.8504648 23
-40.672226 4.5748549 0.71380335 18
-1.4400377 -0.08857815 0.073793694 6
nan nan nan 0
-1.3918787 -0.085219942 -0.023735465 5
-13.61851 1.5379488 -1.6760616 8
nan nan nan 0
-1.395672 0.15637749 -0.26570073 82
-1.4245559 -0.088289477 -0.22081585 53
-1.4145885 0.15925725 -0.3718102 90
-1.3742553 -0.08664757 -0.30940172 74
-30.358629 5.6333251 6.5500722 24
nan nan nan 0
-30.294155 5.5995131 4.3248038 25
-32.620373 0.15577501 5.7398963 30
-30.252113 5.5808349 2.1433108 16
-52.119743 0.28403813 5.4744167 6
-30.178993 5.561902 0 25
-1.3565807 0.0098513374 0.046154581 19
-19.976675 3.6946313 -1.4146124 8
-1.3465773 0.010028754 -0.046034709 35
-11.847583 2.1979983 -1.6843253 10
-1.3327829 0.0099590858 -0.13595678 75
-7.7358828 1.4434551 -1.6667413 8
-1.4234612 0.010503277 -0.24484411 51
-5.7662382 1.0852094 -1.6714125 8
-1.3593968 0.0096668573 -0.32999238 68
-76.523895 8.6089163 17.742016 79
-32.342804 -2.2059231 8.664958 23
-41.088985 4.614481 6.528451 35
-31.530436 -2.0951724 6.1299539 28
nan nan nan 0
-31.372856 -2.0462191 3.8504648 23
-40.672226 4.5748549 0.71380335 18
nan nan nan 0
nan nan nan 0
-1.3918935 -0.084977016 -0.023735465 5
-13.61851 1.5379488 -1.6760616 8
nan nan nan 0
-1.3956445 0.1566211 -0.26570073 82
-1.4245713 -0.088040844 -0.22081585 53
-1.4145607 0.15950415 -0.3718102 90
-1.3742553 -0.08664757 -0.30940172 74
-30.360405 5.7433553 6.5547466 23
nan nan nan 0
-13.643903 2.5688694 1.9463357 8
-32.715652 0.27042809 5.7568102 38
-13.561421 2.5484309 0.96006268 6
-43.138256 0.38603261 4.5305247 16
-30.174135 5.6699839 0 25
-1.3515413 0.014540407 0.045980085 21
-14.28793 2.6929276 -1.0117296 4
-1.346534 0.014729125 -0.046034709 29
-11.834973 2.2384188 -1.6836312 8
-1.3277674 0.014564441 -0.13543586 71
-7.7283945 1.4699913 -1.6662209 8
-1.4209538 0.015448815 -0.24440998 53
-5.7506156 1.1030583 -1.6679691 8
-1.3569291 0.014389962 -0.32938799 65
-76.297371 8.8532333 17.696531 26
-16.974642 -1.0960168 4.5421724 5
nan nan nan 0
-31.525309 -1.9843253 6.1275706 25
nan nan nan 0
nan nan nan 0
-38.744137 4.4949121 0.68020749 3
-1.4079576 -0.081323847 0.072092772 5
-37.198009 4.322052 -1.9673017 16
-1.3822014 -0.079510972 -0.023560939 5
-13.58841 1.5826032 -1.6730192 7
-1.4344606 -0.082928069 -0.12242717 5
-1.3780259 0.15949643 -0.26236755 68
-1.4273344 -0.083219223 -0.22120738 53
-1.4091985 0.16387743 -0.37051696 79
-1.3745493 -0.081849992 -0.30940172 75
-30.360405 5.7433553 6.5547466 23
nan nan nan 0
-30.325512 5.7148604 4.3321104 1
-32.715652 0.27042809 5.7568102 38
-13.561421 2.5484309 0.96006268 6
-51.934536 0.45526636 5.4550791 1
-30.174135 5.6699839 0 25
-1.3515413 0.014540407 0.045980085 21
-19.905495 3.7497637 -1.4104375 1
-1.346534 0.014729125 -0.046034709 29
-11.835363 2.2363534 -1.6836312 8
-1.3277677 0.014558349 -0.13543586 71
-7.728651 1.4686425 -1.6662209 8
-1.4209564 0.015200811 -0.24440998 53
-5.7508078 1.1020547 -1.6679691 8
-1.3569314 0.014153134 -0.32938799 65
-76.29892 8.8399162 17.696531 26
-32.174015 -2.0872204 8.6177855 1
nan nan nan 0
-31.524961 -1.9898275 6.1275706 25
nan nan nan 0
nan nan nan 0
-38.744923 4.4881501 0.68020749 3
-1.4079431 -0.081569575 0.072092772 5
-37.198761 4.3155594 -1.9673017 16
-1.3821732 -0.079987355 -0.023560939 5
-13.588687 1.5802315 -1.6730192 7
-1.4344316 -0.083428785 -0.12242717 5
-1.3780537 0.15925591 -0.26236755 68
-1.4273052 -0.08371745 -0.22120738 53
-1.4092556 0.16338551 -0.37051696 79
-1.374535 -0.082089894 -0.30940172 75
-30.37241 5.8500199 6.5614982 20
nan nan nan 0
-13.372735 2.563679 1.908759 6
-32.874603 0.38075909 5.7850008 31
-13.303061 2.5455041 0.94231915 7
-51.887989 0.62694597 5.4503751 24
-14.25897 2.7261503 0 8
-1.3489872 0.018990802 0.045892835 22
-14.085914 2.7006469 -0.99798709 8
-1.3389828 0.019098815 -0.045771651 25
-11.857055 2.2812114 -1.687796 6
-1.3202537 0.018866273 -0.13465451 67
-7.7309389 1.4956607 -1.6677815 8
-1.4159746 0.019850915 -0.24354175 46
-5.7541981 1.1225047 -1.6700351 8
-1.3568772 0.018652802 -0.32938799 64
-76.276443 9.093749 17.698215 18
-31.954176 -1.9665383 8.5570421 26
-38.411724 4.5718722 6.1073985 18
-31.631826 -1.891296 6.1471114 23
-33.420643 3.9776113 2.9415064 79
nan nan nan 0
-32.427937 3.8651536 0.56942832 6
-1.4032211 -0.076611921 0.071831092 6
-32.099941 3.8317251 -1.6980546 32
-1.37744 -0.075114816 -0.023473676 7
-13.578444 1.6246943 -1.6724106 6
-1.4197822 -0.07780619 -0.12112244 10
-1.3921381 0.16558112 -0.26522455 65
-1.4201803 -0.078551024 -0.22003281 55
-1.4087061 0.16805787 -0.37051696 74
-1.3772315 -0.077676654 -0.30996326 77
-30.37241 5.8500199 6.5614982 20
nan nan nan 0
-13.372735 2.563679 1.908759 6
-32.874603 0.38075909 5.7850008 31
-13.303061 2.5455041 0.94231915 7
-51.887989 0.62694597 5.4503751 24
-30.160078 5.7709541 0 1
-1.3489872 0.018990802 0.045892835 22
-14.085914 2.7006469 -0.99798709 8
-1.3389828 0.019098815 -0.045771651 25
-11.857055 2.2812114 -1.687796 6
-1.3202537 0.018866273 -0.13465451 67
-7.7309389 1.4956607 -1.6677815 8
-1.4159746 0.019850915 -0.24354175 46
-5.7541981 1.1225047 -1.6700351 8
-1.3568772 0.018652802 -0.32938799 64
-76.276443 9.093749 17.698215 18
-31.954176 -1.9665383 8.5570421 26
-38.411724 4.5718722 6.1073985 18
-31.631826 -1.891296 6.1471114 23
-33.420643 3.9776113 2.9415064 79
nan nan nan 0
-38.223492 4.5562315 0.67130679 1
-1.4032211 -0.076611921 0.071831092 6
-32.099941 3.8317251 -1.6980546 32
-1.37744 -0.075114816 -0.023473676 7
-13.578444 1.6246943 -1.6724106 6
-1.4197822 -0.07780619 -0.12112244 10
-1.3921381 0.16558112 -0.26522455 65
-1.4201803 -0.078551024 -0.22003281 55
-1.4087061 0.16805787 -0.37051696 74
-1.3772315 -0.077676654 -0.30996326 77
-14.364981 2.8192208 3.1015725 3
nan nan nan 0
-13.336524 2.6074414 1.9049317 7
-32.83606 0.50068718 5.7784948 36
-13.288746 2.5932879 0.94197124 29
-52.330338 0.82411128 5.4971519 6
-14.008424 2.7314355 0 9
-1.3613994 0.02413772 0.046329081 19
-13.809148 2.7000139 -0.97902584 8
-1.3389039 0.024006303 -0.045771651 10
-11.819463 2.3189247 -1.6836312 7
-1.3176895 0.023664325 -0.13439405 60
-7.7158108 1.5220879 -1.6657008 8
-1.4158925 0.025040587 -0.24354175 40
-5.7382607 1.1412346 -1.6665918 8
-1.3567997 0.02362588 -0.32938799 63
-76.264351 9.3759308 17.70327 4
-31.753824 -1.8373793 8.5014687 28
-32.664391 4.0090327 5.1950545 2
-31.724308 -1.7801718 6.1637921 23
-32.370106 3.9729049 2.8502107 70
-31.781254 -1.7444637 3.8982303 25
-32.133209 3.9495106 0.56449801 30
-1.3960137 -0.071063317 0.071438581 6
-31.917191 3.9286034 -1.6891279 32
-1.3777061 -0.070065744 -0.023473676 10
-13.582249 1.6756675 -1.6736276 7
-1.4101105 -0.072061434 -0.12025262 15
-1.3769082 0.16887257 -0.26236755 66
-1.4352512 -0.074156776 -0.22238192 50
-1.4152701 0.17411286 -0.37245682 77
-1.3799392 -0.072764732 -0.31052476 77
-30.329168 5.957056 6.5568242 1
nan nan nan 0
-13.336524 2.6074414 1.9049317 7
-32.83606 0.50068718 5.7784948 36
-13.288746 2.5932879 0.94197124 29
-52.330193 0.83324462 5.4971519 6
-14.008424 2.7314355 0 9
-1.3613994 0.02413772 0.046329081 19
-13.808677 2.702424 -0.97902584 8
-1.3389039 0.024006303 -0.045771651 10
-11.819057 2.3209875 -1.6836312 7
-1.3176892 0.023670413 -0.13439405 60
-7.7155457 1.5234345 -1.6657008 8
-1.4158881 0.025287706 -0.24354175 40
-5.738061 1.1422362 -1.6665918 8
-1.3567955 0.023862688 -0.32938799 63
-76.262718 9.3892412 17.70327 4
-31.754145 -1.8318371 8.5014687 28
-37.570389 4.6180692 5.9762836 9
-31.724619 -1.7746347 6.1637921 23
-32.369411 3.9785545 2.8502107 70
-31.781559 -1.7389169 3.8982303 25
-32.132515 3.9551187 0.56449801 30
-1.3960261 -0.070819668 0.071438581 6
-31.916504 3.9341743 -1.6891279 32
-1.3777308 -0.069590911 -0.023473676 10
-13.581957 1.678038 -1.6736276 7
-1.4101355 -0.071569204 -0.12025262 15
-1.3768789 0.16911288 -0.26236755 66
-1.4352772 -0.073655762 -0.22238192 50
-1.4152093 0.17460687 -0.37245682 77
-1.3799518 -0.072523884 -0.31052476 77
-14.153629 2.8290255 3.0579469 9
nan nan nan 0
-13.322485 2.6530101 1.9042358 8
-32.92765 0.61705041 5.7949753 16
-13.30652 2.6450155 0.94388473 20
nan nan nan 0
-13.746252 2.7300818 0 9
-1.3613069 0.028889745 0.046329081 18
-13.544808 2.6998305 -0.9609344 8
-1.3363141 0.028630096 -0.045683965 10
-11.806028 2.3612566 -1.682937 7
-1.3200843 0.028319329 -0.13465451 46
-7.7149744 1.5513244 -1.6667413 8
-1.4059449 0.030033993 -0.24180526 53
-5.7340393 1.162259 -1.6665918 9
-1.3639803 0.028740894 -0.33120117 62
-32.693153 4.1400371 7.5879173 18
-31.642181 -1.7145629 8.4698038 25
-32.274651 4.0813084 5.1353502 29
-31.823748 -1.6687813 6.1819024 9
-32.02177 4.0493236 2.8207955 39
-31.259592 -1.6008589 3.8334274 34
-31.93005 4.0433822 0.56118208 35
-1.378811 -0.065065071 0.070522696 5
-31.857998 4.0399041 -1.6867648 36
-1.3604902 -0.063902169 -0.023168257 20
-13.551401 1.7223063 -1.6705853 7
-1.3904779 -0.065641925 -0.11851299 19
-1.386018 0.17516033 -0.26427221 60
-1.4305936 -0.0683937 -0.22159888 39
-1.4026144 0.17801155 -0.36922368 75
-1.3801965 -0.06770651 -0.31052476 79
-14.153629 2.8290255 3.0579469 9
nan nan nan 0
-13.322485 2.6530101 1.9042358 8
-32.92765 0.61705041 5.7949753 16
-13.30652 2.6450155 0.94388473 20
nan nan nan 0
-13.746252 2.7300818 0 9
-1.3613069 0.028889745 0.046329081 18
-13.54528 2.6974666 -0.9609344 8
-1.3363141 0.028630096 -0.045683965 10
-11.806028 2.3612566 -1.682937 7
-1.3200848 0.028313244 -0.13465451 46
-7.7149744 1.5513244 -1.6667413 8
-1.4059502 0.029788608 -0.24180526 53
-5.7340393 1.162259 -1.6665918 9
-1.3639853 0.028502833 -0.33120117 62
-35.29364 4.4694767 8.1921215 1
-31.641884 -1.7200855 8.4698038 25
-32.274651 4.0813084 5.1353502 29
-33.899235 -1.7838492 6.5855775 1
-32.02177 4.0493236 2.8207955 39
-31.25931 -1.6063148 3.8334274 34
-31.93005 4.0433822 0.56118208 35
-1.3787997 -0.065305717 0.070522696 5
-31.857998 4.0399041 -1.6867648 36
-1.360479 -0.064139612 -0.023168257 20
-13.551401 1.7223063 -1.6705853 7
-1.3904665 -0.065884605 -0.11851299 19
-1.3860487 0.17491844 -0.26427221 60
-1.4305818 -0.068643391 -0.22159888 39
-1.4026453 0.17776674 -0.36922368 75
-1.3801965 -0.06770651 -0.31052476 79
-13.873392 2.8208053 2.9992602 9
nan nan nan 0
-13.575645 2.7503428 1.9418125 7
nan nan nan 0
-13.319673 2.6935825 0.94545037 12
nan nan nan 0
-13.452884 2.7181318 0 9
-1.381186 0.033864286 0.04702707 15
-13.26496 2.6873212 -0.94162524 9
-1.3387095 0.033119306 -0.045771651 20
-11.781152 2.3969328 -1.6805075 7
-1.3249552 0.032806069 -0.13517542 39
-7.7049971 1.5759168 -1.6657008 8
-1.3910755 0.034110449 -0.23920055 58
-5.7372136 1.1827281 -1.6686578 8
-1.3566076 0.032860704 -0.32938799 61
-32.174351 4.182765 7.4705586 34
-31.799364 -1.622925 8.5105152 26
-32.065041 4.1628699 5.1041327 34
-32.22102 -1.588183 6.2581577 9
-31.978527 4.1516399 2.8181808 38
-32.773899 -1.5754137 4.0187097 1
-31.876806 4.1440859 0.56048399 26
-1.3765149 -0.060615059 0.070391864 5
-30.96557 4.0310717 -1.6401619 18
-1.363181 -0.059745498 -0.023211887 25
-13.538234 1.7662709 -1.6696725 7
-1.3782386 -0.060684528 -0.11742572 27
-1.3903278 0.18015021 -0.26522455 63
-1.4308014 -0.063899033 -0.22159888 38
-1.406837 0.18304586 -0.37051696 70
-1.3779804 -0.063009813 -0.30996326 79
-13.873392 2.8208053 2.9992602 9
nan nan nan 0
-13.575645 2.7503428 1.9418125 7
nan nan nan 0
-13.319673 2.6935825 0.94545037 12
nan nan nan 0
-13.452884 2.7181318 0 9
-1.381186 0.033864286 0.04702707 15
-13.26496 2.6873212 -0.94162524 9
-1.3387095 0.033119306 -0.045771651 20
-11.781569 2.3948765 -1.6805075 7
-1.3249552 0.032806069 -0.13517542 39
-7.7052717 1.574572 -1.6657008 8
-1.3910755 0.034110449 -0.23920055 58
-5.7374201 1.1817267 -1.6686578 8
-1.3566076 0.032860704 -0.32938799 61
-32.175079 4.1771493 7.4705586 34
-31.799364 -1.622925 8.5105152 26
-32.065769 4.1572738 5.1041327 34
nan nan nan 0
-31.979252 4.1460586 2.8181808 38
-32.773899 -1.5754137 4.0187097 1
-31.877527 4.1385221 0.56048399 26
-1.3765149 -0.060615059 0.070391864 5
-30.966272 4.0256667 -1.6401619 18
-1.3631701 -0.05997733 -0.023211887 25
-13.538542 1.763908 -1.6696725 7
-1.3782281 -0.060925074 -0.11742572 27
-1.3903278 0.18015021 -0.26522455 63
-1.4307902 -0.064148754 -0.22159888 38
-1.4068689 0.18280032 -0.37051696 70
-1.3779693 -0.063250326 -0.30996326 79
-12.716464 2.631475 2.7504902 17
nan nan nan 0
-13.355033 2.7541473 1.9115423 7
nan nan nan 0
-13.283321 2.7345207 0.94353682 9
nan nan nan 0
-13.166624 2.7080772 0 8
-1.3960452 0.039082967 0.047550563 9
-13.008818 2.6826575 -0.9240557 9
-1.326098 0.037458532 -0.045333225 25
-11.753745 2.4319675 -1.677731 8
-1.3273182 0.037497215 -0.13543586 35
-7.7021217 1.6019582 -1.6662209 8
-1.3983314 0.039161921 -0.24050291 57
-5.7332597 1.2017468 -1.6686578 8
-1.3564845 0.037595946 -0.32938799 61
-31.906755 4.2556052 7.4115977 31
-31.568428 -1.5006421 8.4471874 31
-32.036369 4.267221 5.1017909 34
-32.662743 -1.4957457 6.3429914 41
-31.463446 4.1908846 2.7739494 20
-31.279436 -1.3939472 3.8346443 41
-30.562119 4.076211 0.53757775 13
-1.3617531 -0.05515375 0.069606818 4
-30.222036 4.0362034 -1.6014355 25
-1.3558795 -0.054890219 -0.023080993 28
-13.490491 1.8055544 -1.6645004 7
-1.3635035 -0.055456758 -0.11612098 25
-1.3872584 0.18467554 -0.26474839 55
-1.4236053 -0.058824401 -0.22042432 36
-1.4014356 0.18706545 -0.36922368 71
-1.3781817 -0.058439925 -0.30996326 77
-12.716464 2.631475 2.7504902 17
nan nan nan 0
-13.355033 2.7541473 1.9115423 7
nan nan nan 0
-13.283321 2.7345207 0.94353682 9
nan nan nan 0
-13.166624 2.7080772 0 8
-1.3960452 0.039082967 0.047550563 9
-13.008818 2.6826575 -0.9240557 9
-1.326098 0.037458532 -0.045333225 25
-11.75332 2.4340189 -1.677731 8
-1.3273182 0.037497215 -0.13543586 35
-7.7018423 1.6033022 -1.6662209 8
-1.3983314 0.039161921 -0.24050291 57
-5.7330499 1.2027475 -1.6686578 8
-1.3564845 0.037595946 -0.32938799 61
-31.906012 4.2611742 7.4115977 31
-31.568428 -1.5006421 8.4471874 31
-32.035625 4.2728124 5.1017909 34
-32.662743 -1.4957457 6.3429914 41
-31.462713 4.1963758 2.7739494 20
-33.203098 -1.4799547 4.070735 1
-30.561405 4.0815449 0.53757775 13
-1.3617531 -0.05515375 0.069606818 4
-30.221333 4.0414782 -1.6014355 25
-1.3558897 -0.054659657 -0.023080993 28
-13.490176 1.8079089 -1.6645004 7
-1.3635132 -0.055218786 -0.11612098 25
-1.3872584 0.18467554 -0.26474839 55
-1.4236155 -0.058575936 -0.22042432 36
-1.401403 0.18731005 -0.36922368 71
-1.3781919 -0.058199387 -0.30996326 77
-12.355001 2.6038158 2.6741455 6
nan nan nan 0
-13.175261 2.7674022 1.887187 7
nan nan nan 0
-13.075514 2.7416711 0.92944646 7
nan nan nan 0
-12.904598 2.7034392 0 7
-1.4083792 0.044576604 0.047986805 5
-12.752406 2.6784651 -0.90648609 9
-1.328449 0.04239453 -0.045420911 9
-11.749165 2.4781044 -1.6784252 8
-1.3321421 0.042512815 -0.13595678 38
-7.6767797 1.6274531 -1.6620592 8
-1.385874 0.043915164 -0.2383323 62
-5.7309532 1.2242559 -1.6693465 8
-1.3636119 0.042784631 -0.33120117 61
-31.583672 4.3359914 7.3402848 28
-31.597841 -1.3859895 8.4536486 26
-30.73781 4.2143683 4.8973136 13
nan nan nan 0
-30.339268 4.1597104 2.6761172 28
-31.6364 -1.2937411 3.8778465 41
-30.23917 4.1513577 0.53216743 26
-1.3694297 -0.050462876 0.069999337 4
-30.17169 4.1474562 -1.5995977 28
-1.3585783 -0.049789574 -0.023124624 29
-13.490832 1.8583574 -1.6654131 6
-1.3587294 -0.050020993 -0.11568607 29
-1.4011593 0.19177262 -0.26760536 40
-1.4164193 -0.053056579 -0.21924978 34
-1.4102752 0.1937712 -0.3718102 71
-1.373528 -0.052943639 -0.30884022 80
-12.355001 2.6038158 2.6741455 6
nan nan nan 0
-13.175261 2.7674022 1.887187 7
nan nan nan 0
-13.075514 2.7416711 0.92944646 7
nan nan nan 0
-12.904598 2.7034392 0 7
-1.4083792 0.044576604 0.047986805 5
-12.752406 2.6784651 -0.90648609 9
-1.328449 0.04239453 -0.045420911 9
-11.749165 2.4781044 -1.6784252 8
-1.3321421 0.042512815 -0.13595678 38
-7.6767797 1.6274531 -1.6620592 8
-1.385874 0.043915164 -0.2383323 62
-5.7309532 1.2242559 -1.6693465 8
-1.3636119 0.042784631 -0.33120117 61
-31.583672 4.3359914 7.3402848 28
-31.597841 -1.3859895 8.4536486 26
-30.73781 4.2143683 4.8973136 13
nan nan nan 0
-30.339268 4.1597104 2.6761172 28
nan nan nan 0
-30.23917 4.1513577 0.53216743 26
-1.3694297 -0.050462876 0.069999337 4
-30.17169 4.1474562 -1.5995977 28
-1.3585783 -0.049789574 -0.023124624 29
-13.490832 1.8583574 -1.6654131 6
-1.3587294 -0.050020993 -0.11568607 29
-1.4011593 0.19177262 -0.26760536 40
-1.4164193 -0.053056579 -0.21924978 34
-1.4102752 0.1937712 -0.3718102 71
-1.373528 -0.052943639 -0.30884022 80
-12.121089 2.5986631 2.6253264 6
nan nan nan 0
-12.971854 2.7719274 1.8593525 8
nan nan nan 0
-12.841484 2.7393575 0.91344249 6
nan nan nan 0
-12.672596 2.700974 0 8
-1.4182032 0.049829073 0.048335802 4
-12.5869 2.6895597 -0.89535284 10
-1.3582572 0.048046384 -0.046473131 10
-11.733181 2.5175407 -1.6773839 8
-1.3344707 0.047246773 -0.13621724 32
-7.6782227 1.6557904 -1.6636199 7
-1.3955547 0.04908416 -0.24006878 71
-5.7289939 1.2447652 -1.6700351 8
-1.3561807 0.047301698 -0.32938799 61
-30.497284 4.2953043 7.0909662 34
-31.614553 -1.276173 8.4568796 26
-30.368347 4.2717438 4.8407311 30
nan nan nan 0
-30.294968 4.2614236 2.6735024 28
-31.261333 -1.1690584 3.8312976 34
-30.222021 4.2565389 0.53212386 28
-1.3596178 -0.045316432 0.069475979 4
-30.15703 4.2527499 -1.5995977 28
-1.3437561 -0.044499993 -0.022862837 28
-13.565344 1.9169053 -1.6754531 7
-1.3564068 -0.045186572 -0.11546862 30
-1.4053413 0.19735062 -0.2685577 38
-1.411661 -0.047928493 -0.21846674 34
-1.4119811 0.19903265 -0.37245682 65
-1.3688358 -0.047961775 -0.30771714 73
-12.121089 2.5986631 2.6253264 6
nan nan nan 0
-12.971854 2.7719274 1.8593525 8
nan nan nan 0
-12.841484 2.7393575 0.91344249 6
nan nan nan 0
-12.672596 2.700974 0 8
-1.4182032 0.049829073 0.048335802 4
-12.5869 2.6895597 -0.89535284 10
-1.3582572 0.048046384 -0.046473131 10
-11.733181 2.5175407 -1.6773839 8
-1.3344707 0.047246773 -0.13621724 32
-7.6782227 1.6557904 -1.6636199 7
-1.3955547 0.04908416 -0.24006878 71
-5.7289939 1.2447652 -1.6700351 8
-1.3561807 0.047301698 -0.32938799 61
-30.497284 4.2953043 7.0909662 34
-31.614553 -1.276173 8.4568796 26
-30.368347 4.2717438 4.8407311 30
nan nan nan 0
-30.294968 4.2614236 2.6735024 28
-31.261333 -1.1690584 3.8312976 34
-30.222021 4.2565389 0.53212386 28
-1.3596178 -0.045316432 0.069475979 4
-30.15703 4.2527499 -1.5995977 28
-1.3437561 -0.044499993 -0.022862837 28
-13.565344 1.9169053 -1.6754531 7
-1.3564068 -0.045186572 -0.11546862 30
-1.4053413 0.19735062 -0.2685577 38
-1.411661 -0.047928493 -0.21846674 34
-1.4119811 0.19903265 -0.37245682 65
-1.3688358 -0.047961775 -0.30771714 73
-11.871092 2.586185 2.5728717 7
nan nan nan 0
-12.80293 2.7802043 1.8363889 7
nan nan nan 0
-12.656855 2.7438271 0.90091765 8
nan nan nan 0
-12.580502 2.7249625 0 8
-1.4355074 0.055178698 0.048946541 3
-12.568166 2.7291646 -0.89465708 12
-1.3655807 0.052828841 -0.046736188 17
-11.715093 2.5543222 -1.6759956 8
nan nan nan 0
-7.6846313 1.6838664 -1.6662209 6
-1.3830826 0.053256344 -0.23789819 74
-5.7295265 1.2647957 -1.6714125 8
-1.3584408 0.051887598 -0.32999238 62
-30.415361 4.3866725 7.0752435 34
-31.649986 -1.1724954 8.4652805 28
-30.351574 4.3720741 4.8403411 30
nan nan nan 0
-30.292995 4.3636389 2.674592 27
-31.227839 -1.0641128 3.8267341 31
-30.200317 4.3556643 0.53199297 26
-1.3597608 -0.040807527 0.069475979 4
-30.140289 4.3523736 -1.5994663 26
-1.3463947 -0.04012657 -0.022906469 27
-13.546635 1.9601008 -1.673932 10
-1.3416144 -0.040190265 -0.11416389 45
-1.421681 0.20447499 -0.27189088 32
-1.4118123 -0.043246992 -0.21846674 36
-1.4208723 0.20510493 -0.3750433 60
-1.3787258 -0.04376407 -0.30996326 57
-11.871092 2.586185 2.5728717 7
nan nan nan 0
-12.80293 2.7802043 1.8363889 7
nan nan nan 0
-12.656855 2.7438271 0.90091765 8
nan nan nan 0
-12.580502 2.7249625 0 8
-1.4355074 0.055178698 0.048946541 3
-12.568166 2.7291646 -0.89465708 12
-1.3655807 0.052828841 -0.046736188 17
-11.715538 2.5522776 -1.6759956 8
nan nan nan 0
-7.6849246 1.6825252 -1.6662209 6
-1.3830826 0.053256344 -0.23789819 74
-5.7297473 1.2637957 -1.6714125 8
-1.3584408 0.051887598 -0.32999238 62
-30.416126 4.3813639 7.0752435 34
-31.649986 -1.1724954 8.4652805 28
-30.352335 4.3667765 4.8403411 30
nan nan nan 0
-30.293758 4.3583517 2.674592 27
-31.227839 -1.0641128 3.8267341 31
-30.201077 4.3503928 0.53199297 26
-1.3597608 -0.040807527 0.069475979 4
-30.14105 4.3471131 -1.5994663 26
-1.346387 -0.040355481 -0.022906469 27
-13.546976 1.9577364 -1.673932 10
-1.3416073 -0.040424421 -0.11416389 45
-1.421681 0.20447499 -0.27189088 32
-1.4118047 -0.043493398 -0.21846674 36
-1.4209081 0.20485693 -0.3750433 60
-1.3787181 -0.044004701 -0.30996326 57
-11.756948 2.6043 2.5500202 10
nan nan nan 0
-12.655362 2.7944074 1.8165567 9
nan nan nan 0
-12.620413 2.7820768 0.89900416 13
nan nan nan 0
-12.583119 2.7715526 0 16
nan nan nan 0
-12.514729 2.7633259 -0.89152586 9
-1.37787 0.058103167 -0.047174614 14
-11.701725 2.5920844 -1.6753017 8
nan nan nan 0
-7.6933241 1.712536 -1.6693422 5
-1.3927283 0.058482531 -0.23963468 83
-5.718267 1.2822061 -1.6693465 8
-1.3558273 0.056531765 -0.32938799 63
-30.419926 4.490356 7.0797358 34
-31.603199 -1.0603009 8.4517097 30
-30.33935 4.4730592 4.8407311 27
nan nan nan 0
-30.278358 4.4640698 2.674592 28
-31.238804 -0.95532936 3.8276467 31
-30.220325 4.4608998 0.5326038 26
-1.349913 -0.035762828 0.06895262 6
-30.150389 4.4559498 -1.6007791 24
-1.3440211 -0.035580877 -0.022862837 27
-13.542514 2.0053759 -1.6742361 10
-1.3442297 -0.035815846 -0.11438134 69
-1.430669 0.21087889 -0.27379555 26
-1.4119478 -0.038565017 -0.21846674 37
-1.4321274 0.21159409 -0.37827647 39
-1.3691237 -0.038882323 -0.30771714 46
-11.756948 2.6043 2.5500202 10
nan nan nan 0
-12.655362 2.7944074 1.8165567 9
nan nan nan 0
-12.620413 2.7820768 0.89900416 13
nan nan nan 0
-12.583119 2.7715526 0 16
nan nan nan 0
-12.514729 2.7633259 -0.89152586 9
-1.37787 0.058103167 -0.047174614 14
-11.701272 2.5941267 -1.6753017 8
nan nan nan 0
-7.6930251 1.7138786 -1.6693422 5
-1.3927283 0.058482531 -0.23963468 83
-5.7180433 1.2832041 -1.6693465 8
-1.3558273 0.056531765 -0.32938799 63
-30.419144 4.4956651 7.0797358 34
-31.603199 -1.0603009 8.4517097 30
-30.338568 4.478354 4.8407311 27
nan nan nan 0
-30.27758 4.4693542 2.674592 28
-31.238804 -0.95532936 3.8276467 31
-30.219547 4.4661746 0.5326038 26
-1.349913 -0.035762828 0.06895262 6
-30.149609 4.4612122 -1.6007791 24
-1.3440279 -0.035352375 -0.022862837 27
-13.542164 2.0077395 -1.6742361 10
-1.3442359 -0.035581231 -0.11438134 69
-1.430669 0.21087889 -0.27379555 26
-1.4119546 -0.038318582 -0.21846674 37
-1.4320905 0.21184404 -0.37827647 39
-1.3691305 -0.038643368 -0.30771714 46
-11.728239 2.6430662 2.5458655 12
nan nan nan 0
-12.635374 2.8385992 1.8151649 13
nan nan nan 0
-12.607697 2.8277676 0.89883018 12
nan nan nan 0
-12.497259 2.8006816 0 13
nan nan nan 0
-12.45099 2.7971325 -0.88769883 9
-1.3876319 0.063595809 -0.047525354 7
-11.597504 2.6157198 -1.6617658 9
nan nan nan 0
-7.6914616 1.7431471 -1.6703826 10
-1.3851258 0.063260704 -0.2383323 84
-5.7226715 1.3062992 -1.6721011 8
-1.3483405 0.06118203 -0.32757488 62
-30.38801 4.6049361 7.0763664 30
-31.783094 -0.94975412 8.4988842 23
-30.32439 4.5898905 4.8411212 23
-31.545763 -0.88757753 6.1218519 23
-30.268381 4.5814161 2.6752455 26
-31.284264 -0.84196806 3.8328187 32
-30.205446 4.5772791 0.53264737 25
-1.3450437 -0.030684205 0.068690941 7
-30.150333 4.5743079 -1.601698 24
-1.3366522 -0.030231042 -0.022731943 28
-13.544527 2.0588534 -1.6754531 10
-1.339378 -0.030523734 -0.11394643 89
-1.4492965 0.21907742 -0.27760488 16
-1.4120857 -0.033143256 -0.21846674 37
-1.4336915 0.21745636 -0.37892306 35
-1.3643926 -0.033488955 -0.3065941 44
-11.728239 2.6430662 2.5458655 12
nan nan nan 0
-12.635374 2.8385992 1.8151649 13
nan nan nan 0
-12.607697 2.8277676 0.89883018 12
nan nan nan 0
-12.497259 2.8006816 0 13
nan nan nan 0
-12.4505 2.7993054 -0.88769883 9
-1.3876319 0.063595809 -0.047525354 7
-11.597504 2.6157198 -1.6617658 9
nan nan nan 0
-7.6914616 1.7431471 -1.6703826 10
-1.3851147 0.063502453 -0.2383323 84
-5.7226715 1.3062992 -1.6721011 8
-1.3483299 0.06141736 -0.32757488 62
-30.38801 4.6049361 7.0763664 30
-31.783258 -0.94420689 8.4988842 23
-30.32439 4.5898905 4.8411212 23
-33.459404 -0.93585449 6.4935956 1
-30.268381 4.5814161 2.6752455 26
-31.28441 -0.83650792 3.8328187 32
-30.205446 4.5772791 0.53264737 25
-1.3450489 -0.030449452 0.068690941 7
-30.150333 4.5743079 -1.601698 24
-1.3366575 -0.029997753 -0.022731943 28
-13.544527 2.0588534 -1.6754531 10
-1.3393832 -0.030289968 -0.11394643 89
-1.4492582 0.21933037 -0.27760488 16
-1.4120913 -0.032896802 -0.21846674 37
-1.4336535 0.21770658 -0.37892306 35
-1.3643926 -0.033488955 -0.3065941 44
-11.699874 2.6796148 2.5417106 10
nan nan nan 0
-12.579535 2.8722026 1.8085543 10
nan nan nan 0
-12.522377 2.8545523 0.89343756 8
nan nan nan 0
-12.475218 2.8415082 0 13
nan nan nan 0
-12.460102 2.8471997 -0.88909048 18
nan nan nan 0
-11.462825 2.6273797 -1.6437184 9
-16.461004 0.78985047 -1.72264 6
-7.6948595 1.7721847 -1.6724633 9
-1.3971807 0.068925492 -0.24050291 86
-5.7133961 1.3251778 -1.6707239 8
-1.3553765 0.066468887 -0.32938799 62
-30.388601 4.7135968 7.080297 28
-31.559427 -0.82727468 8.4381409 25
-30.320389 4.6976056 4.8430724 20
-31.264212 -0.76494557 6.0665669 30
-30.257126 4.6878066 2.6756814 25
-31.793213 -0.73913783 3.8948841 32
-30.196695 4.6838384 0.53277832 26
-1.3376591 -0.025585553 0.068298422 6
-30.13665 4.6799078 -1.6018293 23
-1.3292571 -0.02516425 -0.022601048 30
-13.537258 2.1061201 -1.6754531 10
-1.336991 -0.025558393 -0.11372898 74
nan nan nan 0
-1.4072605 -0.027853716 -0.2176837 38
-1.4495859 0.22532494 -0.38344947 21
-1.3645012 -0.028726131 -0.3065941 42
-11.699874 2.6796148 2.5417106 10
nan nan nan 0
-12.579535 2.8722026 1.8085543 10
nan nan nan 0
-12.522377 2.8545523 0.89343756 8
nan nan nan 0
-12.475218 2.8415082 0 13
nan nan nan 0
-12.4606 2.8450248 -0.88909048 18
nan nan nan 0
-11.462825 2.6273797 -1.6437184 9
-16.461004 0.78984439 -1.72264 6
-7.6948595 1.7721847 -1.6724633 9
-1.3971926 0.068681635 -0.24050291 86
-5.7133961 1.3251778 -1.6707239 8
-1.3553882 0.066232324 -0.32938799 62
-30.388601 4.7135968 7.080297 28
-31.559282 -0.8327828 8.4381409 25
-30.320389 4.6976056 4.8430724 20
-31.26408 -0.77040219 6.0665669 30
-30.257126 4.6878066 2.6756814 25
-31.793083 -0.74468678 3.8948841 32
-30.196695 4.6838384 0.53277832 26
-1.3376547 -0.025819017 0.068298422 6
-30.13665 4.6799078 -1.6018293 23
-1.3292526 -0.025396248 -0.022601048 30
-13.537258 2.1061201 -1.6754531 10
-1.3369865 -0.025791744 -0.11372898 74
-8.4954262 1.3226104 -1.6613437 1
-1.4072555 -0.028099332 -0.2176837 38
-1.4496251 0.22507195 -0.38344947 21
-1.3645012 -0.028726131 -0.3065941 42
-11.674252 2.7145157 2.5380752 10
nan nan nan 0
-12.545825 2.9083033 1.8050749 9
nan nan nan 0
-12.505553 2.8943727 0.89291567 12
nan nan nan 0
-12.463292 2.8822978 0 18
nan nan nan 0
-12.451096 2.8863301 -0.88909048 22
nan nan nan 0
-11.302146 2.6299725 -1.621853 7
-16.465744 0.84480786 -1.7234215 8
-7.6889405 1.7976921 -1.6724633 9
-1.3871219 0.07281284 -0.23876643 80
-5.7159863 1.3457742 -1.6727898 8
-1.3503155 0.070481136 -0.32817924 63
-30.404081 4.8193026 7.0875969 27
-31.699486 -0.73131901 8.4749737 30
-30.314396 4.7996702 4.8446331 18
nan nan nan 0
-30.261095 4.791234 2.6774244 28
-32.234497 -0.64814448 3.9487343 26
-30.210621 4.7886453 0.53330189 26
-1.337733 -0.021383053 0.068298422 6
-28.762377 4.5641537 -1.5294963 6
-1.3318286 -0.021036133 -0.02264468 30
-13.547354 2.1537292 -1.6775827 13
-1.3320847 -0.021261502 -0.11329407 65
-8.5152292 1.3546352 -1.6661053 7
-1.4098097 -0.023481673 -0.21807522 38
nan nan nan 0
-1.3670244 -0.024252564 -0.30715561 54
-11.674252 2.7145157 2.5380752 10
nan nan nan 0
-12.545825 2.9083033 1.8050749 9
nan nan nan 0
-12.505553 2.8943727 0.89291567 12
nan nan nan 0
-12.463292 2.8822978 0 18
nan nan nan 0
-12.450592 2.8885031 -0.88909048 22
nan nan nan 0
-11.302146 2.6299725 -1.621853 7
-16.465742 0.84481394 -1.7234215 8
-7.6889405 1.7976921 -1.6724633 9
-1.3871092 0.073054932 -0.23876643 80
-5.7159863 1.3457742 -1.6727898 8
-1.3503032 0.070716806 -0.32817924 63
-30.404081 4.8193026 7.0875969 27
-31.699614 -0.72578633 8.4749737 30
-30.314396 4.7996702 4.8446331 18
nan nan nan 0
-30.261095 4.791234 2.6774244 28
-32.234612 -0.64251852 3.9487343 26
-30.210621 4.7886453 0.53330189 26
-1.3377366 -0.021149576 0.068298422 6
-28.762377 4.5641537 -1.5294963 6
-1.3318324 -0.020803686 -0.02264468 30
-13.547354 2.1537292 -1.6775827 13
-1.3320882 -0.021029009 -0.11329407 65
-8.5149937 1.3561215 -1.6661053 7
-1.4098138 -0.023235615 -0.21807522 38
nan nan nan 0
-1.3670244 -0.024252564 -0.30715561 54
-11.654704 2.7550318 2.5359976 12
nan nan nan 0
-12.523035 2.9514232 1.8033353 12
nan nan nan 0
-12.504571 2.9424767 0.89361149 16
nan nan nan 0
-12.469677 2.9319696 0 17
nan nan nan 0
-12.44963 2.9364107 -0.88978624 22
nan nan nan 0
-11.222566 2.6548252 -1.6117879 6
-16.492329 0.90679264 -1.7265469 9
-7.6965723 1.8292617 -1.6755847 9
-1.3892903 0.078273319 -0.23920055 73
-5.7040052 1.3650321 -1.6707239 9
-1.3548795 0.075929508 -0.32938799 62
-30.38381 4.9303164 7.0870357 25
-31.962837 -0.6146493 8.5447636 28
-30.313665 4.9135132 4.8473649 18
nan nan nan 0
-30.260538 4.9049048 2.6789496 28
-32.407944 -0.52717739 3.9697268 34
-28.744547 4.6642451 0.50769049 9
-1.3452941 -0.016362719 0.068690941 5
-28.654282 4.654726 -1.5246391 7
-1.3294003 -0.015883747 -0.022601048 29
-13.541817 2.2037668 -1.677887 10
-1.3346466 -0.016185205 -0.11351152 65
-8.5366096 1.3916701 -1.6713431 8
-1.4123584 -0.01810788 -0.21846674 37
-6.1833658 1.0108886 -1.6682961 8
-1.3622328 -0.019156976 -0.30603257 69
-11.654704 2.7550318 2.5359976 12
nan nan nan 0
-12.523035 2.9514232 1.8033353 12
nan nan nan 0
-12.504571 2.9424767 0.89361149 16
nan nan nan 0
-12.469677 2.9319696 0 17
nan nan nan 0
-12.44963 2.9364107 -0.88978624 22
nan nan nan 0
-11.222566 2.6548252 -1.6117879 6
-16.492329 0.90679264 -1.7265469 9
-7.6965723 1.8292617 -1.6755847 9
-1.3892903 0.078273319 -0.23920055 73
-5.7040052 1.3650321 -1.6707239 9
-1.3548795 0.075929508 -0.32938799 62
-30.38381 4.9303164 7.0870357 25
-31.962837 -0.6146493 8.5447636 28
-30.313665 4.9135132 4.8473649 18
nan nan nan 0
-30.260538 4.9049048 2.6789496 28
-32.407944 -0.52717739 3.9697268 34
-28.744547 4.6642451 0.50769049 9
-1.3452941 -0.016362719 0.068690941 5
-28.654282 4.654726 -1.5246391 7
-1.3294003 -0.015883747 -0.022601048 29
-13.541817 2.2037668 -1.677887 10
-1.3346466 -0.016185205 -0.11351152 65
-8.5366096 1.3916701 -1.6713431 8
-1.4123584 -0.01810788 -0.21846674 37
-6.1833658 1.0108886 -1.6682961 8
-1.3622328 -0.019156976 -0.30603257 69
-11.564175 2.7762592 2.5183396 9
nan nan nan 0
-12.524693 2.998004 1.8050749 12
nan nan nan 0
-12.489371 2.9849465 0.89326358 16
nan nan nan 0
-12.456937 2.9748976 0 18
nan nan nan 0
-12.434453 2.9786863 -0.88943833 20
-1.3891027 0.083109535 -0.04761304 5
-11.184346 2.6870325 -1.6076232 6
-16.4419 0.96160364 -1.7215983 10
-7.6925163 1.8566912 -1.6761048 9
-1.3865509 0.082978927 -0.23876643 69
-5.6968713 1.3843654 -1.6700351 8
-1.3546062 0.080658458 -0.32938799 64
-30.385643 5.0395355 7.0915279 25
-31.848881 -0.5012334 8.5137463 32
-30.32069 5.023335 4.8512673 18
-31.564972 -0.44167471 6.1237578 28
-30.257975 5.0129471 2.6802568 26
-32.394699 -0.41385704 3.9679015 20
-28.789738 4.7747817 0.50878125 7
-1.3428466 -0.011636602 0.068560101 5
-30.098305 4.9972811 -1.6024858 18
-1.3294477 -0.011243178 -0.022601048 26
-13.529147 2.2502086 -1.6772785 12
-1.3322045 -0.011496329 -0.11329407 67
-8.5123339 1.4182297 -1.6675339 7
-1.4099439 -0.013146691 -0.21807522 38
-6.1821814 1.0328649 -1.6689428 15
-1.3647273 -0.014435794 -0.3065941 88
-11.564175 2.7762592 2.5183396 9
nan nan nan 0
-12.524693 2.998004 1.8050749 12
nan nan nan 0
-12.489371 2.9849465 0.89326358 16
nan nan nan 0
-12.456937 2.9748976 0 18
nan nan nan 0
-12.434973 2.976516 -0.88943833 20
-1.3891027 0.083109535 -0.04761304 5
-11.184346 2.6870325 -1.6076232 6
-16.441902 0.96159756 -1.7215983 10
-7.6925163 1.8566912 -1.6761048 9
-1.3865653 0.082736924 -0.23876643 69
-5.6968713 1.3843654 -1.6700351 8
-1.3546203 0.080422029 -0.32938799 64
-30.385643 5.0395355 7.0915279 25
-31.848793 -0.50679201 8.5137463 32
-30.32069 5.023335 4.8512673 18
-31.564896 -0.44718382 6.1237578 28
-30.257975 5.0129471 2.6802568 26
-41.733887 -0.54176927 5.1130619 3
-28.789738 4.7747817 0.50878125 7
-1.3428446 -0.011870973 0.068560101 5
-30.098305 4.9972811 -1.6024858 18
-1.3294457 -0.011475209 -0.022601048 26
-13.529147 2.2502086 -1.6772785 12
-1.3322027 -0.011728842 -0.11329407 67
-8.5125809 1.4167439 -1.6675339 7
-1.4099416 -0.013392772 -0.21807522 38
-6.1823611 1.031786 -1.6689428 15
-1.3647273 -0.014435794 -0.3065941 88
-11.288816 2.7496779 2.4601722 5
nan nan nan 0
-12.483411 3.0319152 1.8005519 6
nan nan nan 0
-12.486674 3.0281122 0.89378542 17
nan nan nan 0
-12.466438 3.0209062 0 15
nan nan nan 0
-12.441998 3.0218613 -0.89065605 13
-1.3913133 0.087869346 -0.047700725 4
-11.172969 2.7235191 -1.607276 6
-16.495703 1.0196368 -1.7275888 10
-7.6910672 1.8833562 -1.6771451 9
-1.3911982 0.087636806 -0.23963468 70
-5.6899157 1.4026722 -1.6693465 9
-1.354346 0.084913664 -0.32938799 63
-30.373566 5.1410837 7.0926509 25
-31.954134 -0.40249792 8.5415325 34
-30.311171 5.1250892 4.852438 18
-31.401791 -0.34070048 6.0918264 36
-30.265743 5.1174116 2.682436 28
-41.906666 -0.40504518 5.1340547 27
-30.181 5.1084976 0.53369457 26
-1.350366 -0.0074845413 0.06895262 4
-30.128336 5.10499 -1.60498 23
-1.336975 -0.0071319854 -0.022731943 23
-13.533843 2.297138 -1.6787997 9
-1.3297436 -0.0072888657 -0.11307661 68
-8.5150948 1.4461991 -1.6689624 7
-1.4124475 -0.0087404344 -0.21846674 38
-6.1741447 1.0514697 -1.6676495 10
-1.3720754 -0.0099879224 -0.30827868 91
-11.288816 2.7496779 2.4601722 5
nan nan nan 0
-12.483411 3.0319152 1.8005519 6
nan nan nan 0
-12.486674 3.0281122 0.89378542 17
nan nan nan 0
-12.466438 3.0209062 0 15
nan nan nan 0
-12.441998 3.0218613 -0.89065605 13
-1.3913133 0.087869346 -0.047700725 4
-11.173444 2.7215691 -1.607276 6
-16.495703 1.0196368 -1.7275888 10
-7.6913953 1.8820138 -1.6771451 9
-1.3911982 0.087636806 -0.23963468 70
-5.6901603 1.4016792 -1.6693465 9
-1.354346 0.084913664 -0.32938799 63
-30.374464 5.1357822 7.0926509 25
-31.954134 -0.40249792 8.5415325 34
-30.312065 5.1197991 4.852438 18
-31.401791 -0.34070048 6.0918264 36
-30.266634 5.1121292 2.682436 28
-41.906666 -0.40504518 5.1340547 27
-30.181892 5.1032295 0.53369457 26
-1.350366 -0.0074845413 0.06895262 4
-30.129225 5.0997314 -1.60498 23
-1.336973 -0.0073592709 -0.022731943 23
-13.534244 2.294776 -1.6787997 9
-1.3297424 -0.0075209504 -0.11307661 68
-8.5150948 1.4461991 -1.6689624 7
-1.4124458 -0.0089869527 -0.21846674 38
-6.1743283 1.050392 -1.6676495 10
-1.3720737 -0.010227393 -0.30827868 91
-11.077383 2.7390969 2.4160273 3
nan nan nan 0
-12.335752 3.0416446 1.7807198 4
nan nan nan 0
-12.492979 3.0758593 0.89500314 9
nan nan nan 0
-12.455817 3.0644038 0 41
nan nan nan 0
-12.472534 3.0754373 -0.89361334 40
nan nan nan 0
-11.161473 2.7599602 -1.6069291 7
-16.479637 1.0764025 -1.7262864 9
-7.6895247 1.9100318 -1.6781856 9
-1.3884269 0.092332728 -0.23920055 70
-5.6875639 1.4221177 -1.6700351 9
-1.3613038 0.090110347 -0.33120117 62
-30.368353 5.2438507 7.0954585 26
-32.428677 -0.29533333 8.668189 32
-30.318344 5.2297754 4.8563399 18
-31.358614 -0.23075418 6.0832477 36
-30.246151 5.2173252 2.6822181 29
-41.969856 -0.25915095 5.1416607 27
-30.188524 5.2128077 0.53413087 27
-1.3379011 -0.0027033002 0.068298422 5
-30.12108 5.2065725 -1.6055051 24
-1.3294919 -0.0026517473 -0.022601048 20
-13.504146 2.3381922 -1.6760616 6
-1.3322511 -0.0028931466 -0.11329407 67
-8.5099945 1.4759135 -1.6689624 7
-1.4099995 -0.0040414589 -0.21807522 39
-6.1611071 1.0702822 -1.665063 10
-1.367229 -0.005402186 -0.30715561 88
-11.077383 2.7390969 2.4160273 3
nan nan nan 0
-12.335752 3.0416446 1.7807198 4
nan nan nan 0
-12.492979 3.0758593 0.89500314 9
nan nan nan 0
-12.455817 3.0644038 0 41
nan nan nan 0
-12.472534 3.0754373 -0.89361334 40
nan nan nan 0
-11.160993 2.7619083 -1.6069291 7
-16.479637 1.0764025 -1.7262864 9
-7.6891909 1.9113739 -1.6781856 9
-1.3884269 0.092332728 -0.23920055 70
-5.6873159 1.4231105 -1.6700351 9
-1.3613038 0.090110347 -0.33120117 62
-30.367439 5.2491512 7.0954585 26
-32.428677 -0.29533333 8.668189 32
-30.317427 5.2350669 4.8563399 18
-31.358614 -0.23075418 6.0832477 36
-30.245239 5.2226038 2.6822181 29
-41.969856 -0.25915095 5.1416607 27
-30.187614 5.2180767 0.53413087 27
-1.3379011 -0.0027033002 0.068298422 5
-30.120173 5.2118297 -1.6055051 24
-1.329493 -0.0024257642 -0.022601048 20
-13.503737 2.3405495 -1.6760616 6
-1.3322514 -0.0026606256 -0.11329407 67
-8.5099945 1.4759135 -1.6689624 7
-1.4100002 -0.0037953667 -0.21807522 39
-6.1609206 1.0713576 -1.665063 10
-1.3672298 -0.0051635588 -0.30715561 88
-10.972405 2.7558155 2.3952532 3
nan nan nan 0
-12.101202 3.0308254 1.7483619 4
nan nan nan 0
-12.510653 3.1288981 0.89709061 37
nan nan nan 0
-12.454203 3.1124637 0 55
nan nan nan 0
-12.427312 3.1126366 -0.89117795 24
nan nan nan 0
-11.155596 2.8040054 -1.6076232 7
-16.440853 1.1344044 -1.72264 10
-7.684505 1.9401432 -1.6787059 9
-1.3929915 0.097758412 -0.24006878 76
-5.6797328 1.4433522 -1.6693465 9
-1.3585442 0.094933748 -0.33059677 63
-30.371986 5.3646574 7.1010737 26
-32.849747 -0.17882119 8.7806282 24
-30.317493 5.3495851 4.8594618 18
-31.467232 -0.11623219 6.104218 36
-30.247965 5.3373194 2.6841788 28
-42.087154 -0.10562734 5.1559601 24
-30.192902 5.333034 0.53456718 26
-1.3428952 0.0021916553 0.068560101 7
-30.127909 5.326973 -1.6069491 23
-1.3369918 0.0024353079 -0.022731943 17
-13.521944 2.3947902 -1.6794082 6
-1.3247807 0.0022353795 -0.1126417 67
-8.5069437 1.5075229 -1.6694385 7
-1.4124738 0.0013669643 -0.21846674 41
-6.1617074 1.0947773 -1.6663562 9
-1.3721118 -0.00016938476 -0.30827868 83
-10.972405 2.7558155 2.3952532 3
nan nan nan 0
-12.101202 3.0308254 1.7483619 4
nan nan nan 0
-12.510653 3.1288981 0.89709061 37
nan nan nan 0
-12.454203 3.1124637 0 55
nan nan nan 0
-12.42677 3.1148057 -0.89117795 24
nan nan nan 0
-11.155596 2.8040054 -1.6076232 7
-16.440853 1.1344105 -1.72264 10
-7.684505 1.9401432 -1.6787059 9
-1.3929745 0.098001547 -0.24006878 76
-5.6797328 1.4433522 -1.6693465 9
-1.3585275 0.095170856 -0.33059677 63
-30.371986 5.3646574 7.1010737 26
-32.849777 -0.17308784 8.7806282 24
-30.317493 5.3495851 4.8594618 18
-31.467251 -0.11074013 6.104218 36
-30.247965 5.3373194 2.6841788 28
-42.087166 -0.098281741 5.1559601 24
-30.192902 5.333034 0.53456718 26
-1.3428948 0.0024260352 0.068560101 7
-30.127909 5.326973 -1.6069491 23
-1.3369914 0.0026686569 -0.022731943 17
-13.521944 2.3947902 -1.6794082 6
-1.3247803 0.0024665971 -0.1126417 67
-8.5066805 1.5090077 -1.6694385 7
-1.4124736 0.0016134877 -0.21846674 41
-6.1615162 1.0958529 -1.6663562 9
-1.3721118 -0.00016938476 -0.30827868 83
-10.87031 2.7705107 2.3749986 4
nan nan nan 0
-11.872223 3.0174789 1.7167001 4
nan nan nan 0
-12.48757 3.1694779 0.89622086 18
nan nan nan 0
-12.457802 3.1596105 0 21
nan nan nan 0
-12.432738 3.1624732 -0.89239562 10
-24.856922 1.8012511 -0.87343186 9
-11.148137 2.8435411 -1.6079701 7
-16.451672 1.1928698 -1.7242028 9
-7.6847911 1.9687797 -1.6802665 9
-1.4024463 0.1035743 -0.24180526 90
-5.6676793 1.4613642 -1.6672804 9
-1.365446 0.10043529 -0.33240992 61
-30.367458 5.4732356 7.1044431 25
-32.838112 -0.058396488 8.7773981 6
-30.308355 5.4571309 4.8610229 18
-31.683409 -0.00093595358 6.1461577 32
-30.238956 5.4446373 2.6850505 28
-43.973129 0.050605234 5.3871822 1
-30.196243 5.4423862 0.53495985 25
-1.3428782 0.0071135983 0.068560101 7
-30.118959 5.4338803 -1.6074742 23
-1.3319746 0.0073251417 -0.02264468 14
-13.511063 2.4415348 -1.679104 7
-1.3222731 0.0070861476 -0.11242425 65
-8.5013618 1.5386922 -1.6694385 7
-1.4198667 0.0065542725 -0.21964128 42
-6.1552777 1.1169221 -1.6657097 9
-1.372104 0.00462018 -0.30827868 80
-10.87031 2.7705107 2.3749986 4
nan nan nan 0
-11.872223 3.0174789 1.7167001 4
nan nan nan 0
-12.48757 3.1694779 0.89622086 18
nan nan nan 0
-12.457802 3.1596105 0 21
-24.583267 1.7771304 0.8594873 1
-12.43329 3.1603031 -0.89239562 10
-24.856922 1.8012511 -0.87343186 9
-11.148633 2.8415954 -1.6079701 7
-16.451672 1.1928637 -1.7242028 9
-7.6851344 1.9674385 -1.6802665 9
-1.4024643 0.10332953 -0.24180526 90
-5.6679344 1.460375 -1.6672804 9
-1.3654634 0.10019697 -0.33240992 61
-30.368414 5.4679356 7.1044431 25
-32.8381 -0.06412781 8.7773981 6
-30.309309 5.4518414 4.8610229 18
-31.683407 -0.0064657521 6.1461577 32
-30.239904 5.4393597 2.6850505 28
-43.973141 0.042930476 5.3871822 1
-30.197193 5.4371157 0.53495985 25
-1.3428794 0.0068792216 0.068560101 7
-30.119907 5.4286237 -1.6074742 23
-1.3319763 0.0068662465 -0.02264468 14
-13.511487 2.4391766 -1.679104 7
-1.3222755 0.0066245869 -0.11242425 65
-8.5016308 1.5372086 -1.6694385 7
-1.4198688 0.0060586454 -0.21964128 42
-6.1556673 1.1147734 -1.6657097 9
-1.3721048 0.004380703 -0.30827868 80
-10.794774 2.789387 2.3604567 3
nan nan nan 0
-11.691955 3.0129111 1.6919967 4
nan nan nan 0
-12.48182 3.2121155 0.89656872 12
nan nan nan 0
-12.425466 3.1952939 0 14
-24.921049 1.8846135 0.87152767 35
-10.053795 2.5901878 -0.72174454 1
-24.79351 1.8793311 -0.87141508 41
-10.005452 2.585145 -1.4438066 6
-16.442667 1.2470375 -1.7236819 10
-7.6880341 1.9953748 -1.6823474 9
-1.3972039 0.10760879 -0.24093702 91
-5.6700349 1.4809895 -1.6693465 9
-1.3602856 0.10436068 -0.33120117 62
-30.366884 5.5716887 7.1083736 25
nan nan nan 0
-30.303205 5.5545468 4.8629737 18
-31.712708 0.098687634 6.1518774 35
-30.253548 5.5454478 2.6878831 28
nan nan nan 0
-30.171618 5.5358691 0.53482896 25
-1.3453457 0.011344967 0.068690941 6
-30.136116 5.5347905 -1.6093121 23
-1.3294467 0.011270549 -0.022601048 13
-13.496003 2.4826212 -1.6781913 7
-1.3247368 0.011021545 -0.1126417 65
-8.4868317 1.5636121 -1.6675339 7
-1.4149027 0.01074552 -0.21885826 43
-6.1543112 1.135619 -1.6663562 9
-1.3696467 0.0089230891 -0.30771714 76
-10.794774 2.789387 2.3604567 3
nan nan nan 0
-11.691955 3.0129111 1.6919967 4
nan nan nan 0
-12.48182 3.2121155 0.89656872 12
-24.766073 1.8598714 2.6066785 1
-12.425466 3.1952939 0 14
-24.921049 1.8846135 0.87152767 35
-12.628002 3.2544851 -0.90718192 1
-24.79351 1.8793311 -0.87141508 41
-10.005452 2.585145 -1.4438066 6
-16.442667 1.2470375 -1.7236819 10
-7.6880341 1.9953748 -1.6823474 9
-1.3972039 0.10760879 -0.24093702 91
-5.6700349 1.4809895 -1.6693465 9
-1.3602856 0.10436068 -0.33120117 62
-30.366884 5.5716887 7.1083736 25
nan nan nan 0
-30.303205 5.5545468 4.8629737 18
-31.712708 0.098687634 6.1518774 35
-30.253548 5.5454478 2.6878831 28
nan nan nan 0
-30.171618 5.5358691 0.53482896 25
-1.3453457 0.011344967 0.068690941 6
-30.136116 5.5347905 -1.6093121 23
-1.3294467 0.011270549 -0.022601048 13
-13.496003 2.4826212 -1.6781913 7
-1.3247368 0.011021545 -0.1126417 65
-8.4868317 1.5636121 -1.6675339 7
-1.4149027 0.01074552 -0.21885826 43
-6.1543112 1.135619 -1.6663562 9
-1.3696467 0.0089230891 -0.30771714 76
-10.744761 2.816494 2.3516276 3
nan nan nan 0
-11.4754 2.9997864 1.6620747 5
nan nan nan 0
-12.465705 3.2544041 0.89622086 3
nan nan nan 0
-12.428749 3.2424388 0 6
-24.869486 1.9680487 0.86995715 31
-9.9457731 2.599371 -0.71461231 6
-24.784307 1.9656677 -0.87132734 41
-9.8598728 2.5842206 -1.4240236 7
-16.430779 1.3038363 -1.7229006 10
-7.6881156 2.0240703 -1.6839079 10
-1.4017285 0.11287333 -0.24180526 90
-5.65554 1.498304 -1.6665918 9
-1.3599131 0.10910833 -0.33120117 62
-30.373594 5.6825848 7.1145506 25
nan nan nan 0
-30.295769 5.66256 4.8649249 18
-31.80052 0.20995557 6.169035 30
-30.270725 5.6578841 2.6911514 3
nan nan nan 0
-30.188965 5.6480513 0.53548342 26
-1.3502908 0.016083732 0.06895262 5
-30.116611 5.6399508 -1.6093121 23
-1.3293991 0.015911115 -0.022601048 15
-13.448235 2.5223923 -1.6733234 6
-1.3197094 0.015603945 -0.11220679 66
-8.4861469 1.5941342 -1.6684862 7
-1.4173257 0.015703779 -0.21924978 45
-6.1431904 1.1557533 -1.6644164 9
-1.367171 0.013687837 -0.30715561 74
-10.744761 2.816494 2.3516276 3
nan nan nan 0
-11.4754 2.9997864 1.6620747 5
nan nan nan 0
-12.465705 3.2544041 0.89622086 3
-24.583107 1.936781 2.5881248 1
-12.428749 3.2424388 0 6
-24.869486 1.9680487 0.86995715 31
-9.9457731 2.599371 -0.71461231 6
-24.784307 1.9656677 -0.87132734 41
-9.8594217 2.5859416 -1.4240236 7
-16.430779 1.3038363 -1.7229006 10
-7.6877623 2.0254121 -1.6839079 10
-1.4017285 0.11287333 -0.24180526 90
-5.6552782 1.4992912 -1.6665918 9
-1.3599131 0.10910833 -0.33120117 62
-30.372601 5.6878858 7.1145506 25
nan nan nan 0
-30.294781 5.6678476 4.8649249 18
-31.80052 0.20995557 6.169035 30
-30.269737 5.6631675 2.6911514 3
nan nan nan 0
-30.187979 5.6533198 0.53548342 26
-1.3502908 0.016083732 0.06895262 5
-30.115627 5.6452074 -1.6093121 23
-1.3293972 0.016137093 -0.022601048 15
-13.447794 2.5247395 -1.6733234 6
-1.3197066 0.015834276 -0.11220679 66
-8.4861469 1.5941342 -1.6684862 7
-1.4173229 0.015951149 -0.21924978 45
-6.1429887 1.1568255 -1.6644164 9
-1.3671687 0.013926454 -0.30715561 74
-10.177166 2.705487 2.2290604 9
nan nan nan 0
-10.112948 2.680867 1.4654926 9
nan nan nan 0
-10.014699 2.651057 0.72017747 9
-24.972668 2.0551763 2.6299362 28
-10.007994 2.6474228 0 3
-24.862465 2.0548472 0.86995715 31
-9.8112974 2.6007919 -0.70556659 7
-24.794724 2.0536113 -0.87194115 39
-9.7163649 2.5846448 -1.4045877 7
-16.426128 1.3611827 -1.7229006 12
-7.6759205 2.0509698 -1.6828675 9
-1.4013259 0.11776559 -0.24180526 85
-5.6500111 1.5190226 -1.6665918 9
-1.3619416 0.11405341 -0.33180553 60
-30.362133 5.7956986 7.1167965 25
nan nan nan 0
-30.313622 5.7809649 4.8711686 16
-33.134583 0.33424011 6.4283013 30
-13.543503 2.5819013 1.203185 6
nan nan nan 0
-30.192616 5.7633491 0.53591973 20
-1.3577156 0.020887224 0.069345139 5
-14.276811 2.7269523 -0.76245081 4
-1.3318323 0.020807993 -0.02264468 21
-13.441336 2.5721321 -1.6736276 7
-1.3221337 0.020470807 -0.11242425 63
-8.4829407 1.6242086 -1.6689624 7
-1.4172586 0.020898433 -0.21924978 48
-6.1460271 1.1796288 -1.6663562 9
-1.3598039 0.018623423 -0.30547103 74
-10.177166 2.705487 2.2290604 9
nan nan nan 0
-10.112948 2.680867 1.4654926 9
nan nan nan 0
-10.014699 2.651057 0.72017747 9
-24.972668 2.0551763 2.6299362 28
-10.007994 2.6474228 0 3
-24.862465 2.0548472 0.86995715 31
-9.8112974 2.6007919 -0.70556659 7
-24.794724 2.0536113 -0.87194115 39
-9.7163649 2.5846448 -1.4045877 7
-16.426128 1.3611827 -1.7229006 12
-7.6759205 2.0509698 -1.6828675 9
-1.4013259 0.11776559 -0.24180526 85
-5.6500111 1.5190226 -1.6665918 9
-1.3619416 0.11405341 -0.33180553 60
-30.362133 5.7956986 7.1167965 25
nan nan nan 0
-30.313622 5.7809649 4.8711686 16
-33.134583 0.33424011 6.4283013 30
-13.543503 2.5819013 1.203185 6
nan nan nan 0
-30.192616 5.7633491 0.53591973 20
-1.3577156 0.020887224 0.069345139 5
-30.031981 5.738111 -1.6058989 1
-1.3318323 0.020807993 -0.02264468 21
-13.441336 2.5721321 -1.6736276 7
-1.3221337 0.020470807 -0.11242425 63
-8.4829407 1.6242086 -1.6689624 7
