# .PCD v0.7 - Point Cloud Data file format
VERSION 0.7
FIELDS x y z intensity
SIZE 4 4 4 4
TYPE F F F F
COUNT 1 1 1 1
WIDTH 1414
HEIGHT 1
VIEWPOINT 0 0 0 1 0 0 0
POINTS 1414
DATA ascii
1.4697596 -15.539369 3.0244665 34
-3.6023986 -42.829662 3.7572842 38
3.1813679 -34.020649 4.1851292 26
-3.8291476 -45.429413 0.79517525 1
3.8581779 -41.638977 2.1897364 20
-1.8089012 -21.426565 -1.128842 1
3.2525036 -35.176765 -0.61603129 13
-0.97373551 -11.495149 -1.4101552 5
1.3575885 -14.683587 -1.2845068 7
-0.67937076 -8.0094385 -1.5527779 4
0.87048358 -9.3796234 -1.4881579 6
-0.5295561 -6.2091031 -1.6592433 4
0.65503275 -6.9786162 -1.6076536 4
-2.9452674 -18.373426 3.9444814 30
0.36128756 -17.791634 4.421576 25
-5.7758212 -36.166843 5.1424456 13
0.66922486 -34.032337 5.9897027 24
-2.8407202 -17.841183 1.2577012 2
0.54825801 -28.923071 3.0368133 10
nan nan nan 0
0.55340677 -29.739161 1.0374748 29
-2.6218216 -16.431534 -1.1582009 17
0.30144322 -16.402071 -0.57451314 23
-1.6395667 -10.228207 -1.4472773 12
0.2377407 -12.959511 -1.3540982 6
-1.1910764 -7.3802137 -1.5829879 4
0.16102825 -8.7317486 -1.5337486 7
-0.95371324 -5.8503232 -1.6886293 4
0.12327869 -6.588398 -1.6330392 5
-1.3993783 -15.949754 3.6824961 30
1.3752329 -14.818661 3.9728661 6
-2.9872832 -34.095043 5.4030437 16
1.4072467 -15.453978 3.0068326 34
-1.4897338 -17.012239 1.4910169 4
3.096674 -34.409672 4.231678 25
nan nan nan 0
3.7150261 -41.677059 2.1910446 18
-1.4975593 -17.033161 -0.89727122 4
1.4141011 -15.927102 -0.27849901 3
-1.0138552 -11.491679 -1.4101552 5
1.3069892 -14.695679 -1.2851592 7
-0.70754123 -8.0094624 -1.553254 4
0.83729571 -9.3776865 -1.4873748 6
-0.55058396 -6.2000003 -1.6573035 4
0.62912327 -6.9638772 -1.6037229 4
-2.9452674 -18.373426 3.9444814 30
0.36128756 -17.791634 4.421576 25
-6.4712553 -40.518311 5.7617655 4
0.66922486 -34.032337 5.9897027 24
-6.9186983 -43.415173 3.0640595 1
0.54825801 -28.923071 3.0368133 10
-7.0985875 -44.593273 0 1
0.55340677 -29.739161 1.0374748 29
-2.6218216 -16.431534 -1.1582009 17
0.30144322 -16.402071 -0.57451314 23
-1.6395667 -10.228207 -1.4472773 12
0.2377407 -12.959511 -1.3540982 6
-1.1910764 -7.3802137 -1.5829879 4
0.16102825 -8.7317486 -1.5337486 7
-0.95371324 -5.8503232 -1.6886293 4
0.12327869 -6.588398 -1.6330392 5
-1.3993783 -15.949754 3.6824961 30
1.6558025 -17.831673 4.7825608 13
-2.9872832 -34.095043 5.4030437 16
1.4072467 -15.453978 3.0068326 34
-3.7568822 -42.87389 3.7622955 26
3.096674 -34.409672 4.231678 25
nan nan nan 0
3.7150261 -41.677059 2.1910446 18
-1.8847773 -21.432554 -1.1294985 1
2.4005225 -27.001564 -0.47257134 7
-1.0138552 -11.491679 -1.4101552 5
1.3069892 -14.695679 -1.2851592 7
-0.70754123 -8.0094624 -1.553254 4
0.83729571 -9.3776865 -1.4873748 6
-0.55058396 -6.2000003 -1.6573035 4
0.62912327 -6.9638772 -1.6037229 4
-3.0161173 -18.404057 3.9533103 36
0.29692218 -17.659376 4.3883581 23
-5.9068227 -36.175777 5.1466208 16
0.4501611 -27.857882 4.9015727 8
nan nan nan 0
nan nan nan 0
nan nan nan 0
0.45111185 -29.840841 1.0409647 27
-2.6827819 -16.444433 -1.1597664 16
0.24294999 -16.320583 -0.57161951 18
-1.675661 -10.224863 -1.4476243 10
0.19242747 -12.955291 -1.3535773 6
-1.2168308 -7.3760114 -1.5829879 4
0.13036087 -8.7199488 -1.5315781 7
-0.97293895 -5.8398476 -1.6865634 4
0.10043087 -6.5984902 -1.6354568 5
-1.4526068 -15.918087 3.6763191 24
1.3396618 -15.003776 4.0213313 34
-3.1051579 -34.072117 5.401093 6
1.3481398 -15.400121 2.9953942 20
-1.5479777 -16.994535 1.4899274 6
2.8589947 -33.063049 4.0646496 9
nan nan nan 0
3.5708029 -41.704697 2.1918297 18
-1.546311 -16.910978 -0.89110124 3
1.3729857 -16.101295 -0.28146598 8
-1.0539625 -11.48807 -1.4101552 5
1.2548327 -14.690225 -1.2842894 8
-0.73482019 -7.9996128 -1.5518255 4
0.80476862 -9.3830118 -1.4877664 6
-0.57266796 -6.2028508 -1.6585968 4
0.60481101 -6.9660306 -1.6037229 4
-3.0161173 -18.404057 3.9533103 36
0.29692218 -17.659376 4.3883581 23
-6.6222329 -40.554111 5.7701163 1
0.55937719 -34.585899 6.0868492 24
-7.1003022 -43.575363 3.0771062 26
nan nan nan 0
-6.4348187 -39.537006 0 1
0.45111185 -29.840841 1.0409647 27
-2.6827819 -16.444433 -1.1597664 16
0.24294999 -16.320583 -0.57161951 18
-1.675661 -10.224863 -1.4476243 10
0.19242747 -12.955291 -1.3535773 6
-1.2168308 -7.3760114 -1.5829879 4
0.13036087 -8.7199488 -1.5315781 7
-0.97293895 -5.8398476 -1.6865634 4
0.10043087 -6.5984902 -1.6354568 5
-1.4526068 -15.918087 3.6763191 24
1.3396618 -15.003776 4.0213313 34
-3.1051579 -34.072117 5.401093 6
1.3481398 -15.400121 2.9953942 20
-3.9105878 -42.905159 3.7662175 1
2.8589947 -33.063049 4.0646496 9
nan nan nan 0
3.5708029 -41.704697 2.1918297 18
-1.9668616 -21.5054 -1.1336993 4
2.8996696 -33.945881 -0.59408474 1
-1.0539625 -11.48807 -1.4101552 5
1.2548327 -14.690225 -1.2842894 8
-0.73482019 -7.9996128 -1.5518255 4
0.80476862 -9.3830118 -1.4877664 6
-0.57266796 -6.2028508 -1.6585968 4
0.60481101 -6.9660306 -1.6037229 4
-3.0593534 -18.287834 3.930459 25
0.23865718 -17.682095 4.3937941 21
-3.13434 -18.815836 2.6759505 5
0.35994083 -28.026628 4.9310637 5
nan nan nan 0
0.5226295 -42.942875 4.5101418 1
nan nan nan 0
0.35369548 -29.972082 1.0455016 21
-2.7405818 -16.455128 -1.1611581 16
nan nan nan 0
-1.7124249 -10.236341 -1.4500538 9
0.14952327 -12.960829 -1.3540982 6
-1.2408767 -7.3695254 -1.5824677 4
0.10150222 -8.7252579 -1.5324464 7
-0.9947263 -5.8508029 -1.6906954 4
0.078519307 -6.5963616 -1.6348524 5
-1.4932117 -15.78464 3.6465578 19
1.2774475 -14.86377 3.982559 31
-3.2418311 -34.312386 5.4408956 9
1.3402511 -15.915604 3.0950022 35
-4.058001 -42.946499 3.7710111 32
2.4305842 -29.244364 3.5936859 2
nan nan nan 0
3.4353557 -41.751144 2.1936617 13
-1.6073334 -16.957951 -0.89385802 3
nan nan nan 0
-1.0913467 -11.477101 -1.4092425 5
1.2065202 -14.69927 -1.2847242 8
-0.76157689 -7.9995742 -1.5523016 4
0.77344495 -9.3831673 -1.4873748 6
-0.59231162 -6.1913013 -1.6560102 4
0.58129895 -6.9631429 -1.6025999 4
-3.0593534 -18.287834 3.930459 25
0.23865718 -17.682095 4.3937941 21
-6.5656443 -39.386665 5.6069355 18
0.44910309 -34.929768 6.1471319 16
nan nan nan 0
0.5226295 -42.942875 4.5101418 1
-2.7849455 -16.775133 0 1
0.35369548 -29.972082 1.0455016 21
-2.7405818 -16.455128 -1.1611581 16
nan nan nan 0
-1.7124249 -10.236341 -1.4500538 9
0.14952327 -12.960829 -1.3540982 6
-1.2408767 -7.3695254 -1.5824677 4
0.10150222 -8.7252579 -1.5324464 7
-0.9947263 -5.8508029 -1.6906954 4
0.078519307 -6.5963616 -1.6348524 5
-1.4932117 -15.78464 3.6465578 19
1.2774475 -14.86377 3.982559 31
-3.2418311 -34.312386 5.4408956 9
1.3402511 -15.915604 3.0950022 35
-4.058001 -42.946499 3.7710111 32
2.7518094 -33.102028 4.0683007 6
-4.4723167 -47.241493 0.82768035 1
3.4353557 -41.751144 2.1936617 13
-2.0417023 -21.536039 -1.1356684 4
nan nan nan 0
-1.0913467 -11.477101 -1.4092425 5
1.2065202 -14.69927 -1.2847242 8
-0.76157689 -7.9995742 -1.5523016 4
0.77344495 -9.3831673 -1.4873748 6
-0.59231162 -6.1913013 -1.6560102 4
0.58129895 -6.9631429 -1.6025999 4
-3.1132722 -18.219194 3.9179943 24
0.17688456 -17.677969 4.3925858 19
-3.2066543 -18.84383 2.6815176 7
0.26013508 -27.818447 4.8941998 6
-6.2433248 -36.742611 2.5971618 34
0.37363905 -43.048855 4.5211172 43
-2.9322374 -17.287827 0 23
0.25047365 -30.14053 1.0513473 1
-2.8021934 -16.470045 -1.1628976 17
nan nan nan 0
-1.746056 -10.218101 -1.4483185 9
0.10421945 -12.953815 -1.3533169 6
-1.2674252 -7.3699679 -1.583508 4
0.071044765 -8.7255592 -1.5324464 7
-1.0151434 -5.8472948 -1.6906954 4
0.055556741 -6.6038723 -1.6366656 5
-1.5492539 -15.78903 3.6488039 22
1.2227674 -14.834443 3.9735122 31
-3.3738735 -34.426197 5.4607973 13
1.294196 -16.037601 3.1178789 32
-4.2122626 -42.976692 3.7749331 34
2.3306572 -29.279881 3.5970325 34
nan nan nan 0
3.2886147 -41.750439 2.1930075 18
-1.6491596 -16.775837 -0.88453746 9
nan nan nan 0
-1.1321342 -11.48063 -1.4101552 5
1.1540279 -14.688496 -1.2834196 7
-0.78997922 -8.0017519 -1.553254 4
0.74010056 -9.3784266 -1.4862002 5
-0.61511481 -6.2012119 -1.6592433 4
0.55738109 -6.969986 -1.6037229 4
-3.1132722 -18.219194 3.9179943 24
0.17695825 -17.685247 4.3943982 19
-6.676475 -39.207317 5.5846682 18
0.33097821 -35.334888 6.2182574 9
-6.2433248 -36.742611 2.5971618 34
0.37363905 -43.048855 4.5211172 43
-2.9322374 -17.287827 0 23
0.35414505 -42.515049 1.4834903 1
-2.8021934 -16.470045 -1.1628976 17
nan nan nan 0
-1.746056 -10.218101 -1.4483185 9
0.10421945 -12.953815 -1.3533169 6
-1.2674252 -7.3699679 -1.583508 4
0.071044765 -8.7255592 -1.5324464 7
-1.0151434 -5.8472948 -1.6906954 4
0.055556741 -6.6038723 -1.6366656 5
-1.5492539 -15.78903 3.6488039 22
1.2227674 -14.834443 3.9735122 31
-3.3738735 -34.426197 5.4607973 13
1.294196 -16.037601 3.1178789 32
-4.2132344 -42.986603 3.7758045 34
2.3306572 -29.279881 3.5970325 34
-4.5736613 -46.578808 0.81633621 1
3.2886147 -41.750439 2.1930075 18
-1.6491596 -16.775837 -0.88453746 9
2.8011174 -35.649368 -0.6235795 31
-1.1321342 -11.48063 -1.4101552 5
1.1540279 -14.688496 -1.2834196 7
-0.78997922 -8.0017519 -1.553254 4
0.74010056 -9.3784266 -1.4862002 5
-0.61511481 -6.2012119 -1.6592433 4
0.55738109 -6.969986 -1.6037229 4
-3.1873717 -18.268436 3.9309781 27
0.11501499 -17.654221 4.3865466 25
-3.0865409 -17.764227 2.5291228 15
0.1626199 -27.750248 4.8820567 31
-3.0540144 -17.613579 1.2444806 3
0.22362858 -43.099625 4.5263438 41
-2.9908559 -17.267633 0 31
0.20606732 -42.583488 1.485846 4
-2.8647976 -16.489647 -1.1649852 17
nan nan nan 0
-1.7834194 -10.221699 -1.4497068 9
0.059025005 -12.959072 -1.3538377 6
-1.2914466 -7.3558664 -1.5814273 4
0.040586445 -8.7257538 -1.5324464 7
-1.0338639 -5.8342514 -1.6879407 4
0.032491881 -6.6016006 -1.6360612 5
-1.6065781 -15.805339 3.6538579 21
1.1686891 -14.809731 3.9657578 27
-3.4982648 -34.455975 5.4674311 20
1.2452203 -16.132551 3.1355131 16
-4.3685455 -43.02367 3.7803805 34
2.229192 -29.297733 3.5982494 40
nan nan nan 0
3.1464231 -41.808968 2.1954935 18
-1.7036576 -16.73024 -0.88243711 16
nan nan nan 0
-1.1706872 -11.461796 -1.4083297 5
1.1027485 -14.692435 -1.2834196 7
-0.81715536 -7.991622 -1.5518255 4
0.707546 -9.3834143 -1.4865917 5
-0.63650995 -6.1966248 -1.6585968 4
0.53267324 -6.967031 -1.6025999 4
-3.1873717 -18.268436 3.9309781 27
0.11501499 -17.654221 4.3865466 25
-6.7394547 -38.75938 5.5241275 1
0.1626199 -27.750248 4.8820567 31
-7.5900159 -43.738289 3.0939798 1
0.22362858 -43.099625 4.5263438 41
-2.9908559 -17.267633 0 31
0.20606732 -42.583488 1.485846 4
-2.8647976 -16.489647 -1.1649852 17
nan nan nan 0
-1.7834194 -10.221699 -1.4497068 9
0.059025005 -12.959072 -1.3538377 6
-1.2914466 -7.3558664 -1.5814273 4
0.040586445 -8.7257538 -1.5324464 7
-1.0338639 -5.8342514 -1.6879407 4
0.032491881 -6.6016006 -1.6360612 5
-1.6065781 -15.805339 3.6538579 21
1.1686891 -14.809731 3.9657578 27
-3.4982648 -34.455975 5.4674311 20
1.2452203 -16.132551 3.1355131 16
-4.3685455 -43.02367 3.7803805 34
2.229192 -29.297733 3.5982494 40
-4.7352109 -46.552612 0.81616175 1
3.1464231 -41.808968 2.1954935 18
-1.7036576 -16.73024 -0.88243711 16
2.1115947 -28.143785 -0.49203092 1
-1.1706872 -11.461796 -1.4083297 5
1.1027485 -14.692435 -1.2834196 7
-0.81715536 -7.991622 -1.5518255 4
0.707546 -9.3834143 -1.4865917 5
-0.63650995 -6.1966248 -1.6585968 4
0.53267324 -6.967031 -1.6025999 4
-3.2500107 -18.232561 3.9257846 27
0.050495405 -17.717598 4.4022493 26
-3.1646283 -17.825918 2.5395608 2
0.060970522 -27.777742 4.886827 28
-3.1072242 -17.53842 1.2399577 17
0.065721549 -43.139935 4.5305247 41
-3.0728846 -17.362406 0 14
0.050001878 -42.593948 1.486195 9
-2.9287076 -16.498682 -1.1663767 17
nan nan nan 0
-1.8213071 -10.21753 -1.4500538 9
0.01152203 -12.954228 -1.3533169 6
-1.3196974 -7.3583026 -1.5829879 4
0.0086107021 -8.7307673 -1.5333146 7
-1.057389 -5.8422456 -1.6913841 4
0.0082955882 -6.6016755 -1.6360612 4
-1.666285 -15.816304 3.6577885 23
1.1435077 -15.199224 4.0691504 30
-3.6240115 -34.438007 5.4666505 18
1.1884308 -16.168825 3.1417086 10
-4.5322032 -43.064335 3.7853918 32
2.127183 -29.379955 3.6073768 3
nan nan nan 0
2.9942355 -41.835155 2.1962783 16
-1.7660145 -16.733812 -0.88296223 25
nan nan nan 0
-1.2126889 -11.457429 -1.4083297 6
1.0485345 -14.691409 -1.2829847 7
-0.84721786 -7.9958944 -1.553254 4
0.67297155 -9.383482 -1.4862002 6
-0.65972984 -6.1990528 -1.6598901 4
0.50749105 -6.9737959 -1.6037229 4
-3.2500107 -18.232561 3.9257846 27
0.050495405 -17.717598 4.4022493 26
-6.887969 -38.770985 5.5293469 26
0.060970522 -27.777742 4.886827 28
-7.765521 -43.79612 3.1000681 1
0.065721549 -43.139935 4.5305247 41
-3.0728846 -17.362406 0 14
0.050001878 -42.593948 1.486195 9
-2.931587 -16.498171 -1.1663767 17
nan nan nan 0
-1.8213071 -10.21753 -1.4500538 9
0.011515935 -12.954227 -1.3533169 6
-1.3196974 -7.3583026 -1.5829879 4
0.0070868949 -8.7307692 -1.5333146 7
-1.057389 -5.8422456 -1.6913841 4
0.0071433783 -6.6016769 -1.6360612 4
-1.666285 -15.816304 3.6577885 23
1.1408548 -15.199423 4.0691504 30
-3.6240115 -34.438007 5.4666505 18
1.1856087 -16.169033 3.1417086 10
-4.5316815 -43.05938 3.784956 32
2.4174621 -33.461506 4.1090689 6
-4.8945308 -46.428051 0.81428558 1
2.9883583 -41.855602 2.1973252 16
-1.7660145 -16.733812 -0.88296223 25
1.9948006 -28.029518 -0.48989299 1
-1.2126889 -11.457429 -1.4083297 6
1.0459703 -14.691592 -1.2829847 7
-0.84861338 -7.9957466 -1.553254 4
0.67133379 -9.3836002 -1.4862002 6
-0.66081178 -6.1989379 -1.6598901 4
0.50749105 -6.9737959 -1.6037229 4
-3.2917292 -18.100807 3.899817 20
-0.011361026 -17.737076 4.4070811 19
-7.0833488 -39.077991 5.5766659 34
-0.039225787 -30.424536 5.3530445 31
-3.1719794 -17.5471 1.2413495 3
-0.085008509 -43.214489 4.5383644 34
-3.1201262 -17.277767 0 18
-0.098673388 -42.591366 1.4861078 83
-2.9936137 -16.512375 -1.1681163 17
nan nan nan 0
-1.8582937 -10.218417 -1.451095 10
-0.0337089 -12.956676 -1.3535773 6
-1.3453747 -7.3536515 -1.5829879 4
-0.023389218 -8.7307405 -1.5333146 7
-1.0760241 -5.8290672 -1.6886293 4
-0.015890656 -6.5968099 -1.6348524 5
-1.7243875 -15.83703 3.6639655 32
1.0966197 -15.326164 4.102107 13
-3.7741179 -34.700092 5.5103555 16
1.1214383 -16.062906 3.1202619 16
-4.6876168 -43.095291 3.7895317 34
2.2772858 -33.130592 4.0673881 26
nan nan nan 0
2.8434224 -41.883213 2.198241 16
-1.829834 -16.777182 -0.88558769 7
nan nan nan 0
-1.2526754 -11.453126 -1.4083297 5
0.99518764 -14.702609 -1.283637 7
-0.87571448 -7.9854169 -1.5518255 4
0.63925004 -9.3957386 -1.4877664 6
-0.68191606 -6.1917925 -1.6585968 4
0.48348477 -6.9803853 -1.604846 4
-3.2917292 -18.100807 3.899817 20
-0.011361026 -17.737076 4.4070811 19
-7.0833488 -39.077991 5.5766659 34
-0.041608065 -32.374508 5.6965275 1
-7.9338984 -43.854637 3.1061568 25
-0.085008509 -43.214489 4.5383644 34
-3.1201262 -17.277767 0 18
-0.098673388 -42.591366 1.4861078 83
-2.9907317 -16.512897 -1.1681163 17
-0.058128718 -22.955734 -0.80442363 1
-1.8582937 -10.218417 -1.451095 10
-0.033702806 -12.956676 -1.3535773 6
-1.3453747 -7.3536515 -1.5829879 4
-0.021865416 -8.7307453 -1.5333146 7
-1.0760241 -5.8290672 -1.6886293 4
-0.014739295 -6.5968127 -1.6348524 5
-1.7243875 -15.83703 3.6639655 32
1.2761014 -17.780539 4.7605896 14
-3.7741179 -34.700092 5.5103555 16
1.1242417 -16.06271 3.1202619 16
-4.6876168 -43.095291 3.7895317 34
2.2830682 -33.130192 4.0673881 26
-4.7830319 -43.900932 0.77021831 1
2.8507323 -41.882713 2.198241 16
-2.3892949 -21.902115 -1.1566726 1
1.8704686 -27.574615 -0.48182121 1
-1.2526754 -11.453126 -1.4083297 5
0.99775368 -14.702435 -1.283637 7
-0.87432081 -7.98557 -1.5518255 4
0.64088994 -9.395628 -1.4877664 6
-0.68083543 -6.1919112 -1.6585968 4
0.48348477 -6.9803853 -1.604846 4
-3.299546 -17.808474 3.8390529 20
-0.069937028 -17.673864 4.3913784 16
-7.182755 -38.891178 5.5533543 26
-0.13215095 -28.668779 5.0438232 26
-3.2382927 -17.580633 1.2444806 9
-0.089148827 -16.635738 1.7448413 2
-3.1869171 -17.318956 0 3
-0.23952019 -42.520847 1.4836649 79
-3.0513654 -16.534767 -1.1703777 16
nan nan nan 0
-1.8948812 -10.226805 -1.4531775 9
-0.076639861 -12.95152 -1.3530563 5
-1.3715506 -7.3587642 -1.5850687 4
-0.050858732 -8.7380085 -1.5346169 7
-1.0949023 -5.8231049 -1.6879407 4
-0.036615033 -6.5967269 -1.6348524 5
-1.7763515 -15.826382 3.6628423 34
1.0416795 -15.230748 4.0756125 16
-3.9040308 -34.819901 5.5314279 16
1.0378561 -15.571717 3.0239897 23
-4.8352194 -43.121586 3.7932358 34
2.167171 -33.045967 4.0561309 34
nan nan nan 0
2.3945551 -36.998943 1.9412713 4
-1.894392 -16.850409 -0.88978851 1
nan nan nan 0
-1.2903702 -11.446443 -1.4080255 5
0.94867092 -14.700691 -1.2832021 7
-0.90162408 -7.9899421 -1.553254 4
0.61005157 -9.4026299 -1.4885495 6
-0.70081967 -6.1848207 -1.6573035 4
0.46033436 -6.9819503 -1.604846 4
-3.299546 -17.808474 3.8390529 20
-0.069937028 -17.673864 4.3913784 16
-7.182755 -38.891178 5.5533543 26
-0.13215095 -28.668779 5.0438232 26
-5.8067031 -31.50635 2.2322021 1
-0.15232484 -29.691174 3.1170387 7
-5.8048868 -31.527283 0 1
-0.23952019 -42.520847 1.4836649 79
-3.0513654 -16.534767 -1.1703777 16
-0.13390701 -22.895454 -0.80231917 1
-1.8930963 -10.227135 -1.4531775 9
-0.076639861 -12.95152 -1.3530563 5
-1.3702662 -7.3590035 -1.5850687 4
-0.050858732 -8.7380085 -1.5346169 7
-1.0938859 -5.8232961 -1.6879407 4
-0.036615033 -6.5967269 -1.6348524 5
-1.7735893 -15.826692 3.6628423 34
1.0416795 -15.230748 4.0756125 16
-3.8979535 -34.820587 5.5314279 16
1.0378561 -15.571717 3.0239897 23
-4.8276935 -43.122429 3.7932358 34
2.167171 -33.045967 4.0561309 34
-5.10956 -45.567387 0.79975653 1
2.7160289 -41.956711 2.2016428 1
-2.4154463 -21.514917 -1.1365874 2
1.7519621 -27.088961 -0.4732258 1
-1.2883724 -11.446669 -1.4080255 5
0.95123661 -14.700526 -1.2832021 7
-0.90162408 -7.9899421 -1.553254 4
0.61169261 -9.402523 -1.4885495 6
-0.69974017 -6.1849422 -1.6573035 4
0.46155289 -6.9818702 -1.604846 4
-3.2989738 -17.465254 3.7673824 18
-0.13173659 -17.688066 4.3950019 4
-7.3207583 -38.878033 5.5550942 25
-0.2278149 -28.119116 4.9471102 9
-5.9194112 -31.500595 2.2332458 39
-0.1438679 -16.583138 1.7393535 17
-5.8470483 -31.145645 0 153
-0.38819364 -42.547237 1.4846246 79
-3.1113729 -16.536272 -1.1712476 14
-0.15500881 -16.536533 -0.57916039 2
-1.927864 -10.2156 -1.4524833 9
-0.12187163 -12.953659 -1.3533169 6
-1.3950309 -7.3493714 -1.5840282 4
-0.08133743 -8.7353172 -1.5341829 7
-1.1146599 -5.8218021 -1.6886293 4
-0.059684023 -6.6014109 -1.6360612 5
-1.8156641 -15.706667 3.6364508 35
0.98976475 -15.253572 4.0807824 24
-4.0259938 -34.863182 5.5404029 16
0.98427135 -15.587492 3.0263729 14
-4.9844775 -43.159744 3.7980294 34
1.8350145 -29.56871 3.6280651 3
-5.2935834 -45.765297 0.80355239 16
2.2603462 -36.924843 1.9369537 1
-1.9629045 -16.953156 -0.89556468 2
nan nan nan 0
-1.3280345 -11.439637 -1.4077214 5
0.90037507 -14.711214 -1.2838545 7
-0.9289403 -7.9818707 -1.5523016 4
0.57856208 -9.3996716 -1.4877664 6
-0.72104496 -6.1800637 -1.6566569 4
0.43656355 -6.9737129 -1.6025999 4
-3.2989738 -17.465254 3.7673824 18
-0.31570071 -42.783848 10.642947 1
-7.3207583 -38.878033 5.5550942 25
-0.2278149 -28.119116 4.9471102 9
-5.9194112 -31.500595 2.2332458 39
-0.14676221 -16.583115 1.7393535 17
-5.8470483 -31.145645 0 153
-0.38819364 -42.547237 1.4846246 79
-3.1113729 -16.536272 -1.1712476 14
-0.21322533 -22.829891 -0.80003935 1
-1.9296468 -10.215262 -1.4524833 9
-0.12187163 -12.953659 -1.3533169 6
-1.3963135 -7.3491278 -1.5840282 4
-0.08133743 -8.7353172 -1.5341829 7
-1.115676 -5.8216076 -1.6886293 4
-0.059684023 -6.6014109 -1.6360612 5
-1.8184053 -15.70635 3.6364508 35
0.98976475 -15.253572 4.0807824 24
-4.0320787 -34.86248 5.5404029 16
0.98427135 -15.587492 3.0263729 14
-4.9920101 -43.158875 3.7980294 34
2.0514977 -33.048378 4.0555229 16
nan nan nan 0
2.2603462 -36.924843 1.9369537 1
-2.4905446 -21.473677 -1.1348808 3
1.627339 -26.681036 -0.465983 1
-1.3300312 -11.439405 -1.4077214 5
0.89780754 -14.71137 -1.2838545 7
-0.9289403 -7.9818707 -1.5523016 4
0.57692152 -9.3997717 -1.4877664 6
-0.7221235 -6.1799378 -1.6566569 4
0.43534636 -6.9737892 -1.6025999 4
-3.3464961 -17.383997 3.7523212 13
nan nan nan 0
-5.9876666 -31.203526 4.4604974 46
-0.3223941 -27.807945 4.8924651 7
-6.0377831 -31.52383 2.2363772 34
-0.20525472 -16.632227 1.7445801 4
-5.9566712 -31.129959 0 45
-0.53699142 -42.568104 1.4854097 41
-3.1751902 -16.557148 -1.173509 16
-0.21260384 -16.525898 -0.57880974 2
-1.9667001 -10.215757 -1.4535245 8
-0.16715097 -12.958128 -1.3538377 6
-1.4242891 -7.3562117 -1.5866294 4
-0.11182888 -8.7349796 -1.5341829 7
-1.1355282 -5.8153195 -1.6879407 4
-0.082786158 -6.6060143 -1.63727 5
-1.8732196 -15.699907 3.6364508 26
0.93101203 -15.167747 4.0568728 15
-4.1540389 -34.850643 5.5407929 9
0.92662448 -15.536938 3.0158877 23
-5.1502991 -43.205479 3.8036945 32
1.7310621 -29.562551 3.626544 46
nan nan nan 0
2.0608082 -35.711231 1.8728422 50
-2.0116866 -16.834295 -0.8896572 2
nan nan nan 0
-1.3687717 -11.424837 -1.4065044 5
0.84644979 -14.714415 -1.2838545 7
-0.95679659 -7.9785795 -1.5523016 4
0.54425055 -9.4041939 -1.4881579 6
-0.74426973 -6.1821747 -1.6579502 4
0.4114354 -6.9825621 -1.6042845 4
-3.3464961 -17.383997 3.7523212 13
-0.46472722 -42.753372 10.635699 1
-5.9876666 -31.203526 4.4604974 46
-0.3223941 -27.807945 4.8924651 7
-6.0377831 -31.52383 2.2363772 34
-0.36469361 -29.681866 3.1162548 15
-5.9566712 -31.129959 0 45
-0.53699142 -42.568104 1.4854097 41
-3.1751902 -16.557148 -1.173509 16
-0.20658763 -16.053726 -0.5622372 1
-1.9667001 -10.215757 -1.4535245 8
-0.16715097 -12.958128 -1.3538377 6
-1.4242891 -7.3562117 -1.5866294 4
-0.11182888 -8.7349796 -1.5341829 7
-1.1355282 -5.8153195 -1.6879407 4
-0.082786158 -6.6060143 -1.63727 5
-1.8732196 -15.699907 3.6364508 26
1.1115301 -18.094042 4.8413653 1
-4.1540389 -34.850643 5.5407929 9
0.92662448 -15.536938 3.0158877 23
-5.1502991 -43.205479 3.8036945 32
1.7310621 -29.562551 3.626544 46
-5.4547653 -45.690987 0.80259252 1
2.0608082 -35.711231 1.8728422 50
-2.561336 -21.430151 -1.1330428 3
1.5526127 -27.005976 -0.47156781 1
-1.3687717 -11.424837 -1.4065044 5
0.84644979 -14.714415 -1.2838545 7
-0.95679659 -7.9785795 -1.5523016 4
0.54425055 -9.4041939 -1.4881579 6
-0.74426973 -6.1821747 -1.6579502 4
0.4114354 -6.9825621 -1.6042845 4
-3.4073591 -17.357216 3.7492046 4
-0.27805489 -19.049915 4.7344265 6
-6.0943804 -31.142498 4.4549303 61
-0.42509824 -27.858274 4.9015727 15
-6.2384429 -31.937164 2.2673414 34
-0.49938408 -31.311138 3.2876816 41
-6.0740824 -31.125093 0 41
-0.84584939 -51.981373 1.8142503 13
-3.2392087 -16.562532 -1.1747266 15
-0.27284494 -16.505024 -0.57810825 34
-2.0041294 -10.20848 -1.4535245 8
-0.21472535 -12.962399 -1.3543587 6
-1.4512414 -7.3509417 -1.5866294 4
-0.14384343 -8.7345114 -1.5341829 7
-1.1568347 -5.8111186 -1.6879407 4
-0.10695932 -6.60324 -1.6366656 4
-1.9501026 -15.850097 3.6729498 22
1.0446452 -18.088348 4.8387804 26
-4.3320742 -35.244492 5.6059608 16
0.88001132 -15.724001 3.0516324 19
-5.3107481 -43.203621 3.8052199 25
1.6236527 -29.58604 3.6286736 39
nan nan nan 0
1.9181602 -35.501659 1.8614591 2
-2.0901794 -16.963089 -0.89687741 2
nan nan nan 0
-1.4109412 -11.422207 -1.4068086 6
0.79291719 -14.724879 -1.2845068 7
-0.98603308 -7.975019 -1.5523016 4
0.50964397 -9.4036598 -1.4877664 5
-0.76722163 -6.1818018 -1.6585968 4
0.38556829 -6.9791584 -1.6031613 4
-3.4073591 -17.357216 3.7492046 4
nan nan nan 0
-6.0943804 -31.142498 4.4549303 61
-0.42509824 -27.858274 4.9015727 15
-6.2384429 -31.937164 2.2673414 34
-0.49938408 -31.311138 3.2876816 41
-6.0740824 -31.125093 0 41
-0.84584939 -51.981373 1.8142503 13
-3.2420995 -16.561966 -1.1747266 15
-0.27284494 -16.505024 -0.57810825 34
-2.0041294 -10.20848 -1.4535245 8
-0.21473143 -12.962399 -1.3543587 6
-1.4512414 -7.3509417 -1.5866294 4
-0.14536789 -8.7344856 -1.5341829 7
-1.1568347 -5.8111186 -1.6879407 4
-0.10811179 -6.6032214 -1.6366656 4
-1.9501026 -15.850097 3.6729498 22
1.0414882 -18.088531 4.8387804 26
-4.3136911 -35.094986 5.5821571 9
0.877267 -15.724155 3.0516324 19
-5.3107481 -43.203621 3.8052199 25
1.6184889 -29.586325 3.6286736 39
-5.5986714 -45.479656 0.7992329 1
2.2648239 -42.038486 2.2045212 4
-2.6499474 -21.502386 -1.137375 3
1.4495773 -27.024218 -0.47178596 1
-1.4109412 -11.422207 -1.4068086 6
0.7903471 -14.725017 -1.2845068 7
-0.98742503 -7.9748468 -1.5523016 4
0.5080027 -9.4037495 -1.4877664 5
-0.76830053 -6.1816678 -1.6585968 4
0.38556829 -6.9791584 -1.6031613 4
-3.477047 -17.390778 3.7590725 27
-0.34433171 -19.036699 4.7314062 18
-6.2069244 -31.140459 4.4577141 26
-0.31282231 -16.638811 2.9252439 7
-6.4360814 -32.348125 2.2981317 30
-0.61031491 -31.393721 3.2965662 31
-6.1963487 -31.172356 0 38
-1.0356693 -52.402763 1.8290826 9
-3.3023331 -16.562778 -1.1755965 14
-0.33075482 -16.518959 -0.57863432 31
-2.0382924 -10.19414 -1.4524833 7
-0.25997731 -12.961571 -1.3543587 6
-1.4778587 -7.3506246 -1.5876697 4
-0.17575809 -8.729003 -1.5333146 7
-1.1780705 -5.8117552 -1.6893179 4
-0.13125551 -6.6076541 -1.6378742 5
-2.0008254 -15.806941 3.6645272 28
0.97794801 -18.084824 4.8368416 25
-4.4569335 -35.243847 5.6083021 20
0.83861154 -16.035917 3.1116834 19
-5.4709024 -43.258942 3.8117566 77
1.6828214 -32.855522 4.0293584 13
nan nan nan 0
1.7876495 -35.500969 1.8610665 48
-2.1302123 -16.804609 -0.88886958 4
1.3617672 -27.158928 -0.47405478 1
-1.4470458 -11.387672 -1.4031577 5
0.73856568 -14.720223 -1.2838545 7
-1.0152564 -7.9713511 -1.5523016 4
0.47530019 -9.4079313 -1.4881579 6
-0.79079443 -6.1861339 -1.6605366 4
0.36171412 -6.9901934 -1.6054076 4
-3.477047 -17.390778 3.7590725 27
-0.77269906 -42.862957 10.664085 1
-6.2069244 -31.140459 4.4577141 26
-0.52748859 -28.13233 4.9501462 1
-6.4360814 -32.348125 2.2981317 30
-0.61031491 -31.393721 3.2965662 31
-6.1963487 -31.172356 0 38
-1.0356693 -52.402763 1.8290826 9
-3.2994423 -16.563354 -1.1755965 14
-0.33075482 -16.518959 -0.57863432 31
-2.0382924 -10.19414 -1.4524833 7
-0.25997123 -12.961572 -1.3543587 6
-1.4778587 -7.3506246 -1.5876697 4
-0.17423458 -8.7290335 -1.5333146 7
-1.1780705 -5.8117552 -1.6893179 4
-0.13010228 -6.607677 -1.6378742 5
-2.0008254 -15.806941 3.6645272 28
0.98110437 -18.084654 4.8368416 25
-4.4569335 -35.243847 5.6083021 20
0.84141028 -16.03577 3.1116834 19
-5.4709024 -43.258942 3.8117566 77
1.6885557 -32.855225 4.0293584 13
-5.7212639 -45.17466 0.79421532 1
1.7938455 -35.500656 1.8610665 48
-2.7325292 -21.552446 -1.1405256 3
1.7362719 -34.483246 -0.6020692 13
-1.4470458 -11.387672 -1.4031577 5
0.74113482 -14.720095 -1.2838545 7
-1.0138651 -7.9715285 -1.5523016 4
0.47694218 -9.4078474 -1.4881579 6
-0.78971475 -6.1862721 -1.6605366 4
0.36171412 -6.9901934 -1.6054076 4
-3.5195706 -17.304865 3.7429729 21
-0.40776774 -19.050007 4.7350307 32
-6.3140945 -31.139114 4.4604974 6
-0.36842999 -16.657373 2.9287136 10
-6.552227 -32.370602 2.3012626 31
-0.85312301 -37.503777 3.9391549 25
-6.3086114 -31.19574 0 40
-1.2094375 -52.399036 1.8290826 16
-3.3563335 -16.562096 -1.1762922 13
-0.5313797 -22.799711 -0.79916251 1
-2.0720861 -10.187325 -1.4524833 7
-0.30306736 -12.96561 -1.3548796 6
-1.5036999 -7.35287 -1.5892304 4
-0.20323686 -8.7308683 -1.5337486 7
-1.1983104 -5.8125234 -1.6906954 4
-0.15173821 -6.5950837 -1.6348524 5
-2.0478909 -15.75915 3.6549809 23
0.83582616 -16.421196 4.3903141 16
-4.599225 -35.424782 5.6395202 40
0.78519988 -15.977195 3.0997684 16
nan nan nan 0
1.5874807 -33.024227 4.0494375 6
nan nan nan 0
1.6783538 -35.553787 1.8635525 46
-2.2055938 -16.948469 -0.89687741 4
1.4036065 -29.859667 -0.5211767 3
-1.4870498 -11.400035 -1.4052874 6
0.69278824 -14.732423 -1.2847242 7
-1.0396576 -7.9632554 -1.5513493 4
0.44562399 -9.4069109 -1.4877664 6
-0.80928171 -6.1764364 -1.6585968 4
0.33829296 -6.9864874 -1.6042845 4
-3.5195706 -17.304865 3.7429729 21
-0.40776774 -19.050007 4.7350307 32
-7.4867501 -36.918388 5.2892728 3
-0.78871763 -35.765995 6.295455 1
-6.552227 -32.370602 2.3012626 31
-0.84657735 -37.503925 3.9391549 25
-6.3086114 -31.19574 0 40
-1.2094375 -52.399036 1.8290826 16
-3.3563335 -16.562096 -1.1762922 13
-0.5313797 -22.799711 -0.79916251 1
-2.070308 -10.187686 -1.4524833 7
-0.30306736 -12.96561 -1.3548796 6
-1.5024165 -7.3531322 -1.5892304 4
-0.20323686 -8.7308683 -1.5337486 7
-1.1972959 -5.8127322 -1.6906954 4
-0.15173821 -6.5950837 -1.6348524 5
-2.0451405 -15.759506 3.6549809 23
0.92754734 -18.213226 4.8704443 1
-4.5930424 -35.425583 5.6395202 40
0.78519988 -15.977195 3.0997684 16
nan nan nan 0
2.0158398 -41.909794 5.1401391 23
-5.7817054 -44.529331 0.78317672 1
1.6783538 -35.553787 1.8635525 46
-2.8050547 -21.580891 -1.1424948 3
1.6429343 -34.805626 -0.6076104 79
-1.4850601 -11.400294 -1.4052874 6
0.69535953 -14.732301 -1.2847242 7
-1.0396576 -7.9632554 -1.5513493 4
0.44726577 -9.4068336 -1.4877664 6
-0.80820364 -6.1765776 -1.6585968 4
0.33951232 -6.9864283 -1.6042845 4
-3.5869033 -17.326 3.7502437 27
-0.46891165 -18.832623 4.6812778 26
-6.4232526 -31.119307 4.460845 2
nan nan nan 0
-6.6863332 -32.450119 2.3085687 4
-0.44535127 -17.042887 1.7882208 3
-6.4235191 -31.202915 0 42
-0.44302452 -16.618906 0.57933164 6
-3.4181616 -16.56982 -1.1776838 10
-0.61009502 -22.765245 -0.79802257 41
-2.1058574 -10.180398 -1.4524833 6
-0.34812474 -12.957016 -1.3540982 6
-1.5285739 -7.3502364 -1.5897506 4
-0.23371202 -8.7301064 -1.5337486 7
-1.2170841 -5.8061652 -1.6900066 4
-0.17494893 -6.6017885 -1.6366656 5
-2.105294 -15.790908 3.6639655 8
0.78264141 -16.510855 4.4135776 19
-4.7098231 -35.357929 5.6313252 18
0.72897387 -15.970031 3.097862 15
nan nan nan 0
nan nan nan 0
-5.1674914 -38.740879 0.68160373 6
1.5543474 -35.561932 1.8636833 23
-2.2789769 -17.069736 -0.90370375 4
0.012307196 -0.38446051 -0.0061083916 5
-1.5241865 -11.390121 -1.4046789 5
0.64403945 -14.737127 -1.2849418 7
-1.0684284 -7.966876 -1.5527779 4
0.41475666 -9.4157372 -1.4889408 6
-0.83104831 -6.1832919 -1.6611832 4
0.31523445 -6.990005 -1.604846 4
-3.5869033 -17.326 3.7502437 27
-0.46891165 -18.832623 4.6812778 26
-7.5910368 -36.773232 5.2722244 13
-0.91155201 -35.684261 6.2815766 23
-9.0950899 -44.1329 3.1406 24
-0.99236107 -37.818707 3.972604 1
-6.4235191 -31.202915 0 42
-1.3933309 -52.431961 1.8303913 1
-3.4181616 -16.56982 -1.1776838 10
-0.61009502 -22.765245 -0.79802257 41
-2.1076338 -10.18003 -1.4524833 6
-0.34812474 -12.957016 -1.3540982 6
-1.5298567 -7.3499699 -1.5897506 4
-0.23371202 -8.7301064 -1.5337486 7
-1.2180974 -5.805953 -1.6900066 4
-0.17494893 -6.6017885 -1.6366656 5
-2.5097044 -18.796797 4.3630667 1
0.78264141 -16.510855 4.4135776 19
-4.7159944 -35.357105 5.6313252 18
0.72897387 -15.970031 3.097862 15
nan nan nan 0
1.8720841 -41.973591 5.1471367 16
-5.8783383 -44.009838 0.77440685 99
1.8506435 -42.321156 2.2182593 1
-2.8854578 -21.580362 -1.1430199 3
1.2812691 -29.449842 -0.5139339 1
-1.5261744 -11.389855 -1.4046789 5
0.64146727 -14.73724 -1.2849418 7
-1.0684284 -7.966876 -1.5527779 4
0.41311327 -9.4158087 -1.4889408 6
-0.83212745 -6.183147 -1.6611832 4
0.31401446 -6.9900594 -1.604846 4
-3.6529076 -17.324699 3.7528405 22
-0.53310311 -18.66103 4.6390009 32
-3.5976188 -17.12175 2.4539695 2
-0.8668288 -29.660957 5.2207689 3
-9.2742109 -44.182251 3.1465144 25
-1.0227194 -34.188911 3.5913365 16
-6.5496483 -31.235434 0 37
-0.5022735 -16.562229 0.57741213 28
-3.4834907 -16.579145 -1.1792495 13
-0.69337803 -22.757864 -0.79784721 36
-2.1449313 -10.172237 -1.4524833 5
-0.39583874 -12.963109 -1.3548796 6
-1.5567855 -7.3443136 -1.5897506 4
-0.26578221 -8.7316523 -1.5341829 7
-1.2413844 -5.8108497 -1.6927614 5
-0.19914453 -6.6011033 -1.6366656 5
-2.1483433 -15.654795 3.6342046 13
0.72116524 -16.491899 4.4077621 6
-4.8666925 -35.493713 5.6559095 25
0.67489177 -16.078032 3.1183555 13
-5.9496589 -43.389267 3.8285339 43
nan nan nan 0
-5.340354 -38.896572 0.6847015 25
1.6893044 -42.172989 2.2101474 9
-2.3485844 -17.09054 -0.9052791 4
0.011336358 -0.39699355 -0.0063265483 5
-1.568927 -11.391561 -1.4055917 5
0.58704853 -14.729538 -1.2840719 7
-1.0982926 -7.9677687 -1.5537302 3
0.3783991 -9.4123259 -1.4881579 6
-0.85412127 -6.1752715 -1.6598901 4
0.28788242 -6.9789939 -1.6020383 4
-3.6529076 -17.324699 3.7528405 22
-0.53310311 -18.66103 4.6390009 32
-7.1697407 -34.102058 4.8926296 18
-1.0414025 -35.648689 6.275938 6
-9.2742109 -44.182251 3.1465144 25
-1.134454 -37.931618 3.9848862 1
-6.5496483 -31.235434 0 37
-0.5022735 -16.562229 0.57741213 28
-3.4834907 -16.579145 -1.1792495 13
-0.69337803 -22.757864 -0.79784721 36
-2.1449313 -10.172237 -1.4524833 5
-0.39583874 -12.963109 -1.3548796 6
-1.5567855 -7.3443136 -1.5897506 4
-0.26578221 -8.7316523 -1.5341829 7
-1.2413844 -5.8108497 -1.6927614 5
-0.19914453 -6.6011033 -1.6366656 5
-2.6080809 -19.00227 4.4130425 7
0.72116524 -16.491899 4.4077621 6
-4.8666925 -35.493713 5.6559095 25
0.67489177 -16.078032 3.1183555 13
-5.9496589 -43.389267 3.8285339 43
1.7361382 -42.416534 5.2006831 16
-6.0518465 -44.077148 0.77597755 1
1.6893044 -42.172989 2.2101474 9
-2.9658947 -21.579535 -1.143545 3
1.1672287 -29.301985 -0.51127237 1
-1.568927 -11.391561 -1.4055917 5
0.58704853 -14.729538 -1.2840719 7
-1.0982926 -7.9677687 -1.5537302 3
0.3783991 -9.4123259 -1.4881579 6
-0.85412127 -6.1752715 -1.6598901 4
0.28788242 -6.9789939 -1.6020383 4
-3.7559755 -17.51029 3.7959466 25
-0.54377735 -16.954481 4.2144184 26
-3.6972568 -17.295492 2.4807601 10
-0.97333229 -29.7488 5.2368155 4
-9.4341116 -44.176441 3.148428 13
-1.1401489 -34.127983 3.5853262 22
-6.6889105 -31.354183 0 1
-0.56008339 -16.560373 0.57741213 31
-3.5439513 -16.579077 -1.1801193 12
-0.77281356 -22.755306 -0.79784721 39
-2.182507 -10.174369 -1.4538716 6
-0.44100186 -12.959164 -1.3546191 6
-1.5834459 -7.3436151 -1.590791 4
-0.296011 -8.7232885 -1.5328804 7
-1.2591006 -5.7947402 -1.6893179 5
-0.22242802 -6.6076417 -1.6384786 5
-2.6533229 -18.843491 4.3782282 26
0.65156865 -16.19751 4.3282785 17
-4.9919353 -35.486286 5.6574702 34
0.6159128 -16.006718 3.1040576 5
-5.4705095 -38.887169 3.4326289 36
1.2293813 -32.86816 4.0284457 20
-5.47505 -38.870266 0.68457061 27
1.5418999 -42.173637 2.2098856 13
-2.3960211 -16.995716 -0.90068442 5
0.59610569 -16.458891 -0.28687626 4
-1.6100713 -11.395842 -1.4068086 5
0.53581184 -14.736474 -1.2845068 7
-1.1250662 -7.9565954 -1.5523016 4
0.34572518 -9.4185247 -1.4889408 6
-0.87499207 -6.1674705 -1.6585968 4
0.26361293 -6.9823904 -1.6025999 4
-3.7559755 -17.51029 3.7959466 25
-0.54377735 -16.954481 4.2144184 26
-7.2933979 -34.098606 4.895761 1
-0.97333229 -29.7488 5.2368155 4
-9.4341116 -44.176441 3.148428 13
-1.1401489 -34.127983 3.5853262 22
-6.6930861 -31.373743 0 1
-0.56008339 -16.560373 0.57741213 31
-3.5439513 -16.579077 -1.1801193 12
-0.77281356 -22.755306 -0.79784721 39
-2.182507 -10.174369 -1.4538716 6
-0.44100186 -12.959164 -1.3546191 6
-1.5834459 -7.3436151 -1.590791 4
-0.296011 -8.7232885 -1.5328804 7
-1.2591006 -5.7947402 -1.6893179 5
-0.22242802 -6.6076417 -1.6384786 5
-2.6533229 -18.843491 4.3782282 26
0.65156865 -16.19751 4.3282785 17
-4.9919353 -35.486286 5.6574702 34
0.6159128 -16.006718 3.1040576 5
-6.1441126 -43.674046 3.8555522 1
1.6063124 -42.908348 5.260314 1
-5.47505 -38.870266 0.68457061 27
1.5418999 -42.173637 2.2098856 13
-3.0582917 -21.69018 -1.1499774 2
1.0738721 -29.550678 -0.51554823 29
-1.6100713 -11.395842 -1.4068086 5
0.53581184 -14.736474 -1.2845068 7
-1.1250662 -7.9565954 -1.5523016 4
0.34572518 -9.4185247 -1.4889408 6
-0.87499207 -6.1674705 -1.6585968 4
0.26361293 -6.9823904 -1.6025999 4
-3.8123791 -17.475573 3.7912726 12
-0.64721209 -18.201061 4.5254569 30
-3.7265403 -17.139757 2.4602323 7
-1.0737896 -29.651722 5.220335 6
-6.8439555 -31.514376 2.2469885 38
-1.258996 -34.116337 3.5845423 6
-6.8396912 -31.521204 0 20
-0.62048662 -16.628227 0.57985508 5
-3.6071057 -16.590975 -1.1818588 12
-0.85270619 -22.764954 -0.79828566 21
-2.2169516 -10.161852 -1.4531775 6
-0.48623508 -12.957545 -1.3546191 6
-1.6064447 -7.3261018 -1.58819 4
-0.32673368 -8.7295828 -1.5341829 7
-1.2814008 -5.7996945 -1.6920727 4
-0.24549164 -6.6068244 -1.6384786 5
-2.2516601 -15.598425 3.6246583 18
0.59359533 -16.161072 4.3179393 13
-5.0921488 -35.304893 5.6313252 13
0.55994868 -16.006317 3.103581 5
-5.6065736 -38.870304 3.432847 26
1.116078 -32.914413 4.0336175 9
nan nan nan 0
1.3960843 -42.221184 2.2121098 13
-2.4621227 -17.034193 -0.90317863 20
0.54244196 -16.57579 -0.2888833 7
-1.6519767 -11.404887 -1.4086341 5
0.4839558 -14.72581 -1.2834196 7
-1.1535382 -7.957478 -1.553254 4
0.3125968 -9.4122705 -1.4877664 6
-0.89755976 -6.1715474 -1.6605366 4
0.23949331 -6.9905725 -1.6042845 4
-3.832207 -17.566359 3.8110077 25
-0.64721209 -18.201061 4.5254569 30
-6.8584518 -31.52813 4.529736 18
-1.0737896 -29.651722 5.220335 6
-6.8439555 -31.514376 2.2469885 38
-1.6136258 -43.741756 4.5969005 1
-6.8396912 -31.521204 0 20
-1.3485143 -36.202755 1.2638853 30
-3.6071057 -16.590975 -1.1818588 12
-0.85270619 -22.764954 -0.79828566 21
-2.2169516 -10.161852 -1.4531775 6
-0.48623508 -12.957545 -1.3546191 6
-1.6064447 -7.3261018 -1.58819 4
-0.32673368 -8.7295828 -1.5341829 7
-1.2814008 -5.7996945 -1.6920727 4
-0.24549164 -6.6068244 -1.6384786 5
-2.2516601 -15.598425 3.6246583 18
0.59359533 -16.161072 4.3179393 13
-5.0921488 -35.304893 5.6313252 13
1.0466251 -29.804792 5.7848997 23
-6.2940359 -43.635075 3.8540268 1
1.4549204 -42.866577 5.2545333 9
-6.3318958 -43.84333 0.772618 25
1.3960843 -42.221184 2.2121098 13
-2.4621227 -17.034193 -0.90317863 20
0.97112674 -29.566738 -0.51576638 23
-1.6519767 -11.404887 -1.4086341 5
0.4839558 -14.72581 -1.2834196 7
-1.1535382 -7.957478 -1.553254 4
0.3125968 -9.4122705 -1.4877664 6
-0.89755976 -6.1715474 -1.6605366 4
0.23949331 -6.9905725 -1.6042845 4
-3.9126861 -17.653824 3.8328204 21
-0.70878702 -18.230328 4.5333085 19
-3.7935145 -17.173235 2.4668431 7
-1.1866759 -30.017023 5.2853889 18
-6.9150887 -31.340523 2.2362034 31
-1.3711251 -34.087132 3.581929 23
-6.9457979 -31.505678 0 1
-1.4660312 -36.13567 1.261704 45
-3.6637192 -16.586227 -1.1823808 14
-0.92910701 -22.784468 -0.79907483 42
-2.2533207 -10.166529 -1.4549128 5
-0.5293023 -12.958345 -1.3548796 6
-1.6317962 -7.3255072 -1.5892304 4
-0.35548091 -8.7235317 -1.5333146 7
-1.2990425 -5.7883801 -1.6900066 5
-0.26749665 -6.608398 -1.639083 5
-2.3019488 -15.581235 3.6224127 6
0.58205026 -17.410818 4.6520271 1
-5.1918817 -35.170559 5.6125946 9
0.94911546 -29.849798 5.7930017 25
-5.7077909 -38.664249 3.4162872 9
1.0518124 -34.378799 4.2128148 13
-5.419251 -36.665981 0.64634985 1
0.8808862 -29.658436 1.5532002 6
-2.515672 -17.006178 -0.90212846 8
0.48732337 -16.5725 -0.28879601 7
-1.6890591 -11.394437 -1.4080255 6
0.4348976 -14.719866 -1.2827672 7
-1.1791985 -7.9487538 -1.5523016 4
0.28123292 -9.4083195 -1.4869833 6
-0.91766435 -6.1661487 -1.6598901 4
0.21592568 -6.9791527 -1.6014768 4
-3.9126861 -17.653824 3.8328204 21
-0.70878702 -18.230328 4.5333085 19
-3.7935145 -17.173235 2.4668431 7
-1.2714361 -32.164761 5.6640005 1
-6.9150887 -31.340523 2.2362034 31
-1.3651757 -34.087368 3.581929 23
-9.9761772 -45.242901 0 1
-1.4660312 -36.13567 1.261704 45
-3.6637192 -16.586227 -1.1823808 14
-0.92910701 -22.784468 -0.79907483 42
-2.2515461 -10.166922 -1.4549128 5
-0.5293023 -12.958345 -1.3548796 6
-1.6305176 -7.3257914 -1.5892304 4
-0.35548091 -8.7235317 -1.5333146 7
-1.2980322 -5.7886066 -1.6900066 5
-0.26749665 -6.608398 -1.639083 5
-2.785356 -18.873678 4.3894587 1
0.88290834 -26.338985 7.0423379 1
-5.1857433 -35.171463 5.6125946 9
0.94911546 -29.849798 5.7930017 25
-6.4779649 -43.932919 3.8821347 9
1.3132187 -42.886044 5.2563586 18
-6.4776349 -43.877625 0.77357793 1
1.257109 -42.260517 2.2139416 3
-2.5141644 -17.016499 -0.90265357 8
0.87934828 -29.607122 -0.5164209 31
-1.6870705 -11.394732 -1.4080255 6
0.43746671 -14.71979 -1.2827672 7
-1.1791985 -7.9487538 -1.5523016 4
0.282875 -9.4082708 -1.4869833 6
-0.91658819 -6.1663089 -1.6598901 4
0.21714379 -6.979115 -1.6014768 4
-4.0054922 -17.778421 3.8629432 23
-0.71894777 -16.962526 4.2180424 26
-3.9261994 -17.483551 2.5134659 8
-1.2622807 -29.33379 5.1656904 4
-6.9496212 -30.982815 2.2123713 4
-1.4849108 -34.099785 3.5837584 18
-7.0759716 -31.571497 0 1
-2.3229027 -52.734127 1.8420825 1
-3.7265165 -16.595238 -1.1839464 13
-1.0121632 -22.860956 -0.80188072 19
-2.2853875 -10.151755 -1.4538716 6
-0.57519066 -12.971322 -1.3564423 6
-1.6549977 -7.3152862 -1.58819 4
-0.38636255 -8.7320776 -1.5350511 7
-1.3198375 -5.7910686 -1.6920727 4
-0.29066846 -6.609848 -1.6396874 5
-2.8493984 -18.851793 4.3866506 1
0.52010506 -17.374123 4.6416883 6
-5.3202848 -35.231281 5.6250815 28
0.85734022 -30.289593 5.8778353 1
-2.6848822 -17.784853 1.5705465 10
0.93734103 -34.585663 4.2377625 36
-5.5688438 -36.833172 0.64962214 37
0.77478784 -29.563995 1.5480976 37
-2.5664465 -16.960718 -0.9001593 8
0.43071151 -16.511557 -0.28770521 9
-1.7279522 -11.396134 -1.4089383 6
0.3862806 -14.728697 -1.2834196 7
-1.2061994 -7.9397364 -1.5513493 4
0.25009906 -9.4116688 -1.4873748 6
-0.93919909 -6.1702337 -1.6618298 4
0.19284965 -6.9822659 -1.6020383 4
-4.0054922 -17.778421 3.8629432 23
-0.71894777 -16.962526 4.2180424 26
-8.3799009 -37.294548 5.3672099 2
-1.3810624 -32.098629 5.6531582 31
-9.9474926 -44.339756 3.1672151 9
-1.6857488 -38.563168 4.0533524 3
nan nan nan 0
-2.3229027 -52.734127 1.8420825 1
-3.7265165 -16.595238 -1.1839464 13
-1.0121632 -22.860956 -0.80188072 19
-2.2871592 -10.151356 -1.4538716 6
-0.57519066 -12.971322 -1.3564423 6
-1.6562744 -7.3149972 -1.58819 4
-0.38636255 -8.7320776 -1.5350511 7
-1.3208482 -5.7908387 -1.6920727 4
-0.29066846 -6.609848 -1.6396874 5
-6.6306834 -43.802677 10.203511 1
0.78848386 -26.259832 7.0203671 1
-5.3264337 -35.23035 5.6250815 28
1.0581094 -37.344875 7.2485204 1
-6.6411791 -43.92366 3.8834419 1
1.1639159 -42.905254 5.2581844 1
-6.6548758 -43.96233 0.77549762 1
0.77478784 -29.563995 1.5480976 37
-2.569407 -16.96027 -0.9001593 8
0.76854277 -29.522688 -0.51489377 1
-1.7299412 -11.395832 -1.4089383 6
0.38370994 -14.728764 -1.2834196 7
-1.2061994 -7.9397364 -1.5513493 4
0.2484564 -9.4117117 -1.4873748 6
-0.94027603 -6.1700697 -1.6618298 4
0.19163102 -6.9822993 -1.6020383 4
-4.0624242 -17.727865 3.8551526 34
-0.83755147 -18.188437 4.5242486 27
-4.0057054 -17.536617 2.5232079 21
-1.4960626 -32.036789 5.6431837 31
-10.124372 -44.366222 3.1717381 23
-0.79612672 -16.77622 1.7615658 5
-7.2049837 -31.603849 0 1
-2.5216417 -52.840061 1.846096 13
-3.7923195 -16.60335 -1.1855119 12
-1.0936767 -22.809675 -0.80021471 9
-2.3249044 -10.145318 -1.4542186 6
-0.62284797 -12.971611 -1.3567028 6
-1.6841742 -7.3136425 -1.5892304 4
-0.41848192 -8.7330618 -1.5354851 7
-1.3426085 -5.7882996 -1.6927614 4
-0.31477809 -6.6063147 -1.639083 5
-2.971817 -19.163298 4.4618955 4
0.45655033 -17.380739 4.6429801 3
-5.4521203 -35.188629 5.6215696 16
0.74710822 -30.324427 5.8840313 36
-2.7466669 -17.732571 1.5668423 5
0.70592546 -30.148355 3.6931727 28
-5.7167473 -36.853508 0.65036386 27
0.66563219 -29.531694 1.5462658 40
-2.6300189 -16.94087 -0.89963418 6
0.36472616 -16.398136 -0.28569818 7
-1.773988 -11.404126 -1.4107637 6
0.32961076 -14.725091 -1.2829847 7
-1.2349139 -7.932837 -1.5508732 4
0.21413106 -9.4199657 -1.4885495 6
-0.96288413 -6.1665821 -1.6618298 4
0.16615735 -6.9878259 -1.6031613 5
-4.0624242 -17.727865 3.8551526 34
-0.83755147 -18.188437 4.5242486 27
-4.0057054 -17.536617 2.5232079 21
-1.4960626 -32.036789 5.6431837 31
-10.126593 -44.375946 3.1724339 23
-1.6165389 -34.108738 3.5853262 1
-7.2049837 -31.603849 0 1
-2.5216417 -52.840061 1.846096 13
-3.7952175 -16.602686 -1.1855119 12
-1.0936767 -22.809675 -0.80021471 9
-2.3249044 -10.145318 -1.4542186 6
-0.62285405 -12.971611 -1.3567028 6
-1.6841742 -7.3136425 -1.5892304 4
-0.42000607 -8.7329884 -1.5354851 7
-1.3426085 -5.7882996 -1.6927614 4
-0.31593111 -6.6062593 -1.639083 5
-6.8057518 -43.871967 10.225411 1
0.68656588 -26.221626 7.0093818 9
-5.4521203 -35.188629 5.6215696 16
0.74181563 -30.324554 5.8840313 36
-6.7468138 -43.54216 3.8518481 1
1.0025872 -43.055771 5.2761345 1
-6.8328252 -44.046326 0.77741736 1
0.66047788 -29.531811 1.5462658 40
-3.3922606 -21.847658 -1.1607422 1
0.66042709 -29.76033 -0.51899511 1
-1.773988 -11.404126 -1.4107637 6
0.32704073 -14.725148 -1.2829847 7
-1.2362986 -7.932622 -1.5508732 4
0.21248694 -9.4200029 -1.4885495 6
-0.96396035 -6.1664138 -1.6618298 4
0.16615735 -6.9878259 -1.6031613 5
-4.1131797 -17.665947 3.8447659 29
-0.900437 -18.173288 4.5212293 30
-4.0652142 -17.515293 2.5221643 21
-1.6115811 -32.105141 5.6561947 32
-10.299465 -44.418072 3.1780007 25
-0.85316718 -16.743542 1.7584301 8
-7.3316283 -31.649132 0 22
-2.7018578 -52.748596 1.8432168 18
-3.8542781 -16.594196 -1.1858598 12
-1.1878994 -23.090172 -0.81021088 1
-2.3631163 -10.149197 -1.4559541 6
-0.66863966 -12.97929 -1.3577446 6
-1.7124852 -7.319622 -1.5918313 4
-0.45061362 -8.7339277 -1.5359194 8
-1.3644638 -5.7905936 -1.6948273 4
-0.33874217 -6.6002712 -1.6378742 5
-3.0066087 -18.950703 4.4147272 16
0.41829652 -18.495338 4.9408808 5
-5.5934806 -35.286453 5.6403003 6
0.79018742 -37.628887 7.3023758 18
-5.9248652 -37.376331 3.3077784 1
0.59428602 -30.093681 3.6861749 40
-6.9947643 -44.074055 0.77833366 38
0.558101 -29.571375 1.5482283 35
-2.6989338 -16.993227 -0.90291613 5
0.66405439 -35.465572 -0.61856192 27
-1.8145657 -11.402765 -1.4113722 5
0.27578047 -14.733669 -1.283637 6
-1.2666892 -7.9452229 -1.5542064 4
0.17950717 -9.4157495 -1.4877664 6
-0.98509735 -6.1606269 -1.6611832 4
0.14176428 -6.9883633 -1.6031613 4
-4.1131797 -17.665947 3.8447659 29
-0.900437 -18.173288 4.5212293 30
-8.4723139 -36.483673 5.2590032 1
-1.6115811 -32.105141 5.6561947 32
-10.301156 -44.425358 3.1785226 25
-2.2307625 -43.844082 4.6104889 1
-7.3316283 -31.649132 0 22
-2.7018578 -52.748596 1.8432168 18
-3.8513815 -16.594868 -1.1858598 12
-1.1878994 -23.090172 -0.81021088 1
-2.3631163 -10.149197 -1.4559541 6
-0.66863364 -12.97929 -1.3577446 6
-1.7124852 -7.319622 -1.5918313 4
-0.44908929 -8.7340069 -1.5359194 8
-1.3644638 -5.7905936 -1.6948273 4
-0.33759019 -6.6003299 -1.6378742 5
-6.9737477 -43.941776 10.247311 1
0.60589463 -26.496586 7.0824027 5
-5.5934806 -35.286453 5.6403003 6
0.79675484 -37.62875 7.3023758 18
-6.8702917 -43.338783 3.8359423 1
0.59953827 -30.093576 3.6861749 40
-6.9947643 -44.074055 0.77833366 38
0.56326222 -29.571278 1.5482283 35
-3.4547884 -21.749386 -1.1561475 1
0.67024422 -35.465454 -0.61856192 27
-1.8145657 -11.402765 -1.4113722 5
0.27835202 -14.733622 -1.283637 6
-1.2653025 -7.9454432 -1.5542064 4
0.18115053 -9.4157171 -1.4877664 6
-0.98402202 -6.1607985 -1.6611832 4
0.14176428 -6.9883633 -1.6031613 4
-4.1680598 -17.622927 3.8385334 21
-0.96245754 -18.143385 4.514586 30
-4.1030135 -17.40221 2.507899 5
-1.7286497 -32.192745 5.6726751 28
-10.474471 -44.466808 3.1840889 23
-0.90054691 -16.536886 1.7370018 18
-6.8243651 -29.00009 0 1
-2.8948357 -52.900997 1.8488879 13
-3.9110034 -16.588604 -1.1863817 14
nan nan nan 0
-2.3985291 -10.140886 -1.4559541 6
-0.71420807 -12.981842 -1.3582654 6
-1.7391585 -7.3183579 -1.5928718 4
-0.47943944 -8.7299261 -1.5354851 7
-1.3852295 -5.7881317 -1.6955161 4
-0.36102244 -6.6063786 -1.6396874 5
-3.0329273 -18.694818 4.3574514 16
0.35672545 -18.48455 4.9376493 23
-3.0033717 -18.533117 2.9614115 24
0.32302257 -18.401165 3.5673072 15
-6.9661231 -42.972824 3.8056557 6
0.49362448 -30.043383 3.679786 1
-7.1930246 -44.323242 0.78317672 22
0.46082002 -29.62299 1.5508451 22
-2.7554314 -16.966454 -0.90199721 5
0.25050938 -16.41778 -0.28600359 1
-1.8507679 -11.374318 -1.4086341 6
0.22680302 -14.727033 -1.2829847 7
-1.29066 -7.9264445 -1.5513493 4
0.14836261 -9.4212313 -1.4885495 6
-1.0066909 -6.1644764 -1.6631231 4
0.11724194 -6.9815083 -1.6014768 4
-4.1680598 -17.622927 3.8385334 21
-0.96245754 -18.143385 4.514586 30
-8.6525021 -36.677956 5.2913609 4
-1.7286497 -32.192745 5.6726751 28
-10.474471 -44.466808 3.1840889 23
-0.90054691 -16.536886 1.7370018 18
-6.8243651 -29.00009 0 1
-2.8948357 -52.900997 1.8488879 13
-3.9110034 -16.588604 -1.1863817 14
nan nan nan 0
-2.3985291 -10.140886 -1.4559541 6
-0.71420807 -12.981842 -1.3582654 6
-1.7391585 -7.3183579 -1.5928718 4
-0.47943944 -8.7299261 -1.5354851 7
-1.3852295 -5.7881317 -1.6955161 4
-0.36102244 -6.6063786 -1.6396874 5
nan nan nan 0
0.35672545 -18.48455 4.9376493 23
-3.0033717 -18.533117 2.9614115 24
0.66872138 -37.817787 7.3385968 1
-6.9661231 -42.972824 3.8056557 6
0.49362448 -30.043383 3.679786 1
-7.1930246 -44.323242 0.78317672 22
0.46082002 -29.62299 1.5508451 22
-3.5238793 -21.695305 -1.1539158 1
